778.00000000	111.00000000	138.00000000	247	122	168
773.00000000	112.00000000	138.00000000	246	124	168
774.00000000	112.00000000	138.00000000	246	124	168
773.00000000	113.00000000	138.00000000	246	125	168
774.00000000	113.00000000	138.00000000	246	125	168
774.00000000	114.00000000	138.00000000	246	127	168
776.00000000	114.00000000	138.00000000	247	127	168
773.00000000	115.00000000	138.00000000	246	128	168
775.00000000	115.00000000	138.00000000	247	128	168
777.00000000	115.00000000	138.00000000	247	128	168
773.00000000	116.00000000	138.00000000	246	129	168
775.00000000	116.00000000	138.00000000	247	129	168
777.00000000	116.00000000	138.00000000	247	129	168
773.00000000	117.00000000	138.00000000	246	131	168
776.00000000	117.00000000	138.00000000	247	131	168
773.00000000	118.00000000	138.00000000	246	132	168
774.00000000	118.00000000	138.00000000	246	132	168
775.00000000	118.00000000	138.00000000	247	132	168
773.00000000	119.00000000	138.00000000	246	134	168
774.00000000	120.00000000	138.00000000	246	135	168
774.00000000	121.00000000	138.00000000	246	136	168
774.00000000	122.00000000	138.00000000	246	138	168
774.00000000	123.00000000	138.00000000	246	139	168
773.00000000	124.00000000	138.00000000	246	141	168
773.00000000	125.00000000	138.00000000	246	142	168
774.00000000	126.00000000	138.00000000	246	143	168
774.00000000	127.00000000	138.00000000	246	145	168
774.00000000	128.00000000	138.00000000	246	146	168
774.00000000	129.00000000	138.00000000	246	148	168
774.00000000	130.00000000	138.00000000	246	149	168
773.00000000	131.00000000	138.00000000	246	151	168
773.00000000	132.00000000	138.00000000	246	152	168
773.00000000	133.00000000	138.00000000	246	153	168
773.00000000	134.00000000	138.00000000	246	155	168
773.00000000	135.00000000	138.00000000	246	156	168
772.00000000	136.00000000	138.00000000	246	158	168
772.00000000	137.00000000	138.00000000	246	159	168
772.00000000	138.00000000	138.00000000	246	160	168
772.00000000	139.00000000	138.00000000	246	162	168
773.00000000	139.00000000	138.00000000	246	162	168
772.00000000	140.00000000	138.00000000	246	163	168
772.00000000	141.00000000	138.00000000	246	165	168
772.00000000	142.00000000	138.00000000	246	166	168
772.00000000	143.00000000	138.00000000	246	167	168
772.00000000	144.00000000	138.00000000	246	169	168
772.00000000	145.00000000	138.00000000	246	170	168
772.00000000	146.00000000	138.00000000	246	172	168
772.00000000	147.00000000	138.00000000	246	173	168
772.00000000	148.00000000	138.00000000	246	174	168
772.00000000	149.00000000	138.00000000	246	176	168
772.00000000	150.00000000	138.00000000	246	177	168
772.00000000	151.00000000	138.00000000	246	179	168
772.00000000	152.00000000	138.00000000	246	180	168
772.00000000	153.00000000	138.00000000	246	181	168
772.00000000	154.00000000	138.00000000	246	183	168
772.00000000	155.00000000	138.00000000	246	184	168
771.00000000	156.00000000	138.00000000	245	186	168
772.00000000	156.00000000	138.00000000	246	186	168
771.00000000	157.00000000	138.00000000	245	187	168
772.00000000	157.00000000	138.00000000	246	187	168
772.00000000	158.00000000	138.00000000	246	188	168
772.00000000	159.00000000	138.00000000	246	190	168
771.00000000	160.00000000	138.00000000	245	191	168
771.00000000	161.00000000	138.00000000	245	193	168
776.00000000	109.00000000	139.00000000	247	120	170
777.00000000	109.00000000	139.00000000	247	120	170
778.00000000	109.00000000	139.00000000	247	120	170
779.00000000	110.00000000	139.00000000	248	121	170
779.00000000	111.00000000	139.00000000	248	122	170
775.00000000	112.00000000	139.00000000	247	124	170
776.00000000	112.00000000	139.00000000	247	124	170
777.00000000	112.00000000	139.00000000	247	124	170
778.00000000	112.00000000	139.00000000	247	124	170
774.00000000	113.00000000	139.00000000	246	125	170
774.00000000	114.00000000	139.00000000	246	127	170
776.00000000	114.00000000	139.00000000	247	127	170
774.00000000	115.00000000	139.00000000	246	128	170
776.00000000	115.00000000	139.00000000	247	128	170
777.00000000	115.00000000	139.00000000	247	128	170
773.00000000	116.00000000	139.00000000	246	129	170
777.00000000	116.00000000	139.00000000	247	129	170
773.00000000	117.00000000	139.00000000	246	131	170
774.00000000	117.00000000	139.00000000	246	131	170
775.00000000	117.00000000	139.00000000	247	131	170
776.00000000	117.00000000	139.00000000	247	131	170
773.00000000	118.00000000	139.00000000	246	132	170
775.00000000	118.00000000	139.00000000	247	132	170
773.00000000	119.00000000	139.00000000	246	134	170
774.00000000	119.00000000	139.00000000	246	134	170
775.00000000	119.00000000	139.00000000	247	134	170
774.00000000	120.00000000	139.00000000	246	135	170
775.00000000	120.00000000	139.00000000	247	135	170
774.00000000	121.00000000	139.00000000	246	136	170
774.00000000	122.00000000	139.00000000	246	138	170
774.00000000	123.00000000	139.00000000	246	139	170
773.00000000	124.00000000	139.00000000	246	141	170
773.00000000	125.00000000	139.00000000	246	142	170
774.00000000	126.00000000	139.00000000	246	143	170
773.00000000	127.00000000	139.00000000	246	145	170
774.00000000	127.00000000	139.00000000	246	145	170
773.00000000	128.00000000	139.00000000	246	146	170
774.00000000	129.00000000	139.00000000	246	148	170
772.00000000	130.00000000	139.00000000	246	149	170
773.00000000	130.00000000	139.00000000	246	149	170
774.00000000	130.00000000	139.00000000	246	149	170
773.00000000	131.00000000	139.00000000	246	151	170
773.00000000	132.00000000	139.00000000	246	152	170
772.00000000	133.00000000	139.00000000	246	153	170
772.00000000	134.00000000	139.00000000	246	155	170
772.00000000	135.00000000	139.00000000	246	156	170
772.00000000	136.00000000	139.00000000	246	158	170
772.00000000	137.00000000	139.00000000	246	159	170
772.00000000	138.00000000	139.00000000	246	160	170
772.00000000	139.00000000	139.00000000	246	162	170
772.00000000	140.00000000	139.00000000	246	163	170
772.00000000	141.00000000	139.00000000	246	165	170
772.00000000	142.00000000	139.00000000	246	166	170
772.00000000	143.00000000	139.00000000	246	167	170
772.00000000	144.00000000	139.00000000	246	169	170
772.00000000	145.00000000	139.00000000	246	170	170
772.00000000	146.00000000	139.00000000	246	172	170
772.00000000	147.00000000	139.00000000	246	173	170
772.00000000	148.00000000	139.00000000	246	174	170
772.00000000	149.00000000	139.00000000	246	176	170
772.00000000	150.00000000	139.00000000	246	177	170
772.00000000	151.00000000	139.00000000	246	179	170
772.00000000	152.00000000	139.00000000	246	180	170
772.00000000	153.00000000	139.00000000	246	181	170
772.00000000	154.00000000	139.00000000	246	183	170
772.00000000	155.00000000	139.00000000	246	184	170
772.00000000	156.00000000	139.00000000	246	186	170
772.00000000	157.00000000	139.00000000	246	187	170
772.00000000	158.00000000	139.00000000	246	188	170
771.00000000	159.00000000	139.00000000	245	190	170
771.00000000	160.00000000	139.00000000	245	191	170
778.00000000	109.00000000	140.00000000	247	120	171
779.00000000	110.00000000	140.00000000	248	121	171
776.00000000	111.00000000	140.00000000	247	122	171
779.00000000	111.00000000	140.00000000	248	122	171
776.00000000	112.00000000	140.00000000	247	124	171
777.00000000	112.00000000	140.00000000	247	124	171
778.00000000	112.00000000	140.00000000	247	124	171
775.00000000	113.00000000	140.00000000	247	125	171
774.00000000	114.00000000	140.00000000	246	127	171
774.00000000	115.00000000	140.00000000	246	128	171
776.00000000	115.00000000	140.00000000	247	128	171
774.00000000	116.00000000	140.00000000	246	129	171
776.00000000	116.00000000	140.00000000	247	129	171
777.00000000	116.00000000	140.00000000	247	129	171
773.00000000	117.00000000	140.00000000	246	131	171
774.00000000	117.00000000	140.00000000	246	131	171
776.00000000	117.00000000	140.00000000	247	131	171
772.00000000	118.00000000	140.00000000	246	132	171
775.00000000	118.00000000	140.00000000	247	132	171
773.00000000	119.00000000	140.00000000	246	134	171
775.00000000	119.00000000	140.00000000	247	134	171
774.00000000	120.00000000	140.00000000	246	135	171
775.00000000	120.00000000	140.00000000	247	135	171
774.00000000	121.00000000	140.00000000	246	136	171
774.00000000	122.00000000	140.00000000	246	138	171
773.00000000	123.00000000	140.00000000	246	139	171
775.00000000	123.00000000	140.00000000	247	139	171
773.00000000	124.00000000	140.00000000	246	141	171
774.00000000	124.00000000	140.00000000	246	141	171
775.00000000	124.00000000	140.00000000	247	141	171
773.00000000	125.00000000	140.00000000	246	142	171
774.00000000	125.00000000	140.00000000	246	142	171
773.00000000	126.00000000	140.00000000	246	143	171
774.00000000	126.00000000	140.00000000	246	143	171
773.00000000	127.00000000	140.00000000	246	145	171
774.00000000	127.00000000	140.00000000	246	145	171
773.00000000	128.00000000	140.00000000	246	146	171
774.00000000	128.00000000	140.00000000	246	146	171
773.00000000	129.00000000	140.00000000	246	148	171
773.00000000	130.00000000	140.00000000	246	149	171
773.00000000	131.00000000	140.00000000	246	151	171
773.00000000	132.00000000	140.00000000	246	152	171
773.00000000	133.00000000	140.00000000	246	153	171
772.00000000	134.00000000	140.00000000	246	155	171
772.00000000	135.00000000	140.00000000	246	156	171
772.00000000	136.00000000	140.00000000	246	158	171
772.00000000	137.00000000	140.00000000	246	159	171
772.00000000	138.00000000	140.00000000	246	160	171
772.00000000	139.00000000	140.00000000	246	162	171
772.00000000	140.00000000	140.00000000	246	163	171
772.00000000	141.00000000	140.00000000	246	165	171
773.00000000	142.00000000	140.00000000	246	166	171
773.00000000	143.00000000	140.00000000	246	167	171
773.00000000	144.00000000	140.00000000	246	169	171
773.00000000	145.00000000	140.00000000	246	170	171
773.00000000	146.00000000	140.00000000	246	172	171
773.00000000	147.00000000	140.00000000	246	173	171
773.00000000	148.00000000	140.00000000	246	174	171
772.00000000	149.00000000	140.00000000	246	176	171
772.00000000	150.00000000	140.00000000	246	177	171
772.00000000	151.00000000	140.00000000	246	179	171
772.00000000	152.00000000	140.00000000	246	180	171
772.00000000	153.00000000	140.00000000	246	181	171
772.00000000	154.00000000	140.00000000	246	183	171
772.00000000	155.00000000	140.00000000	246	184	171
772.00000000	156.00000000	140.00000000	246	186	171
772.00000000	157.00000000	140.00000000	246	187	171
772.00000000	158.00000000	140.00000000	246	188	171
771.00000000	159.00000000	140.00000000	245	190	171
778.00000000	110.00000000	141.00000000	247	121	173
776.00000000	111.00000000	141.00000000	247	122	173
779.00000000	111.00000000	141.00000000	248	122	173
775.00000000	112.00000000	141.00000000	247	124	173
777.00000000	112.00000000	141.00000000	247	124	173
778.00000000	112.00000000	141.00000000	247	124	173
775.00000000	113.00000000	141.00000000	247	125	173
777.00000000	113.00000000	141.00000000	247	125	173
778.00000000	113.00000000	141.00000000	247	125	173
774.00000000	114.00000000	141.00000000	246	127	173
775.00000000	114.00000000	141.00000000	247	127	173
776.00000000	114.00000000	141.00000000	247	127	173
778.00000000	114.00000000	141.00000000	247	127	173
774.00000000	115.00000000	141.00000000	246	128	173
775.00000000	115.00000000	141.00000000	247	128	173
774.00000000	116.00000000	141.00000000	246	129	173
775.00000000	116.00000000	141.00000000	247	129	173
776.00000000	116.00000000	141.00000000	247	129	173
773.00000000	117.00000000	141.00000000	246	131	173
775.00000000	117.00000000	141.00000000	247	131	173
773.00000000	118.00000000	141.00000000	246	132	173
775.00000000	118.00000000	141.00000000	247	132	173
773.00000000	119.00000000	141.00000000	246	134	173
775.00000000	119.00000000	141.00000000	247	134	173
775.00000000	120.00000000	141.00000000	247	135	173
774.00000000	121.00000000	141.00000000	246	136	173
773.00000000	122.00000000	141.00000000	246	138	173
774.00000000	122.00000000	141.00000000	246	138	173
775.00000000	122.00000000	141.00000000	247	138	173
773.00000000	123.00000000	141.00000000	246	139	173
775.00000000	123.00000000	141.00000000	247	139	173
773.00000000	124.00000000	141.00000000	246	141	173
775.00000000	124.00000000	141.00000000	247	141	173
773.00000000	125.00000000	141.00000000	246	142	173
774.00000000	125.00000000	141.00000000	246	142	173
775.00000000	125.00000000	141.00000000	247	142	173
773.00000000	126.00000000	141.00000000	246	143	173
775.00000000	126.00000000	141.00000000	247	143	173
773.00000000	127.00000000	141.00000000	246	145	173
775.00000000	127.00000000	141.00000000	247	145	173
773.00000000	128.00000000	141.00000000	246	146	173
774.00000000	128.00000000	141.00000000	246	146	173
775.00000000	128.00000000	141.00000000	247	146	173
773.00000000	129.00000000	141.00000000	246	148	173
773.00000000	130.00000000	141.00000000	246	149	173
773.00000000	131.00000000	141.00000000	246	151	173
773.00000000	132.00000000	141.00000000	246	152	173
773.00000000	133.00000000	141.00000000	246	153	173
772.00000000	134.00000000	141.00000000	246	155	173
772.00000000	135.00000000	141.00000000	246	156	173
772.00000000	136.00000000	141.00000000	246	158	173
772.00000000	137.00000000	141.00000000	246	159	173
772.00000000	138.00000000	141.00000000	246	160	173
773.00000000	139.00000000	141.00000000	246	162	173
773.00000000	140.00000000	141.00000000	246	163	173
773.00000000	141.00000000	141.00000000	246	165	173
773.00000000	142.00000000	141.00000000	246	166	173
773.00000000	143.00000000	141.00000000	246	167	173
773.00000000	144.00000000	141.00000000	246	169	173
773.00000000	145.00000000	141.00000000	246	170	173
773.00000000	146.00000000	141.00000000	246	172	173
773.00000000	147.00000000	141.00000000	246	173	173
773.00000000	148.00000000	141.00000000	246	174	173
772.00000000	149.00000000	141.00000000	246	176	173
772.00000000	150.00000000	141.00000000	246	177	173
772.00000000	151.00000000	141.00000000	246	179	173
772.00000000	152.00000000	141.00000000	246	180	173
772.00000000	153.00000000	141.00000000	246	181	173
772.00000000	154.00000000	141.00000000	246	183	173
772.00000000	155.00000000	141.00000000	246	184	173
772.00000000	156.00000000	141.00000000	246	186	173
771.00000000	157.00000000	141.00000000	245	187	173
772.00000000	157.00000000	141.00000000	246	187	173
771.00000000	158.00000000	141.00000000	245	188	173
771.00000000	159.00000000	141.00000000	245	190	173
778.00000000	111.00000000	142.00000000	247	122	174
777.00000000	112.00000000	142.00000000	247	124	174
778.00000000	112.00000000	142.00000000	247	124	174
775.00000000	113.00000000	142.00000000	247	125	174
777.00000000	113.00000000	142.00000000	247	125	174
778.00000000	113.00000000	142.00000000	247	125	174
774.00000000	114.00000000	142.00000000	246	127	174
776.00000000	114.00000000	142.00000000	247	127	174
779.00000000	114.00000000	142.00000000	248	127	174
774.00000000	115.00000000	142.00000000	246	128	174
775.00000000	115.00000000	142.00000000	247	128	174
776.00000000	115.00000000	142.00000000	247	128	174
778.00000000	115.00000000	142.00000000	247	128	174
775.00000000	116.00000000	142.00000000	247	129	174
777.00000000	116.00000000	142.00000000	247	129	174
775.00000000	117.00000000	142.00000000	247	131	174
773.00000000	118.00000000	142.00000000	246	132	174
775.00000000	118.00000000	142.00000000	247	132	174
775.00000000	119.00000000	142.00000000	247	134	174
774.00000000	120.00000000	142.00000000	246	135	174
774.00000000	121.00000000	142.00000000	246	136	174
774.00000000	122.00000000	142.00000000	246	138	174
774.00000000	123.00000000	142.00000000	246	139	174
775.00000000	123.00000000	142.00000000	247	139	174
774.00000000	124.00000000	142.00000000	246	141	174
775.00000000	124.00000000	142.00000000	247	141	174
774.00000000	125.00000000	142.00000000	246	142	174
773.00000000	126.00000000	142.00000000	246	143	174
774.00000000	126.00000000	142.00000000	246	143	174
773.00000000	127.00000000	142.00000000	246	145	174
774.00000000	127.00000000	142.00000000	246	145	174
773.00000000	128.00000000	142.00000000	246	146	174
773.00000000	129.00000000	142.00000000	246	148	174
773.00000000	130.00000000	142.00000000	246	149	174
773.00000000	131.00000000	142.00000000	246	151	174
773.00000000	132.00000000	142.00000000	246	152	174
773.00000000	133.00000000	142.00000000	246	153	174
773.00000000	134.00000000	142.00000000	246	155	174
772.00000000	135.00000000	142.00000000	246	156	174
772.00000000	136.00000000	142.00000000	246	158	174
772.00000000	137.00000000	142.00000000	246	159	174
773.00000000	138.00000000	142.00000000	246	160	174
773.00000000	139.00000000	142.00000000	246	162	174
773.00000000	140.00000000	142.00000000	246	163	174
773.00000000	141.00000000	142.00000000	246	165	174
773.00000000	142.00000000	142.00000000	246	166	174
773.00000000	143.00000000	142.00000000	246	167	174
773.00000000	144.00000000	142.00000000	246	169	174
773.00000000	145.00000000	142.00000000	246	170	174
773.00000000	146.00000000	142.00000000	246	172	174
773.00000000	147.00000000	142.00000000	246	173	174
772.00000000	148.00000000	142.00000000	246	174	174
772.00000000	149.00000000	142.00000000	246	176	174
772.00000000	150.00000000	142.00000000	246	177	174
772.00000000	151.00000000	142.00000000	246	179	174
773.00000000	152.00000000	142.00000000	246	180	174
773.00000000	153.00000000	142.00000000	246	181	174
773.00000000	154.00000000	142.00000000	246	183	174
772.00000000	155.00000000	142.00000000	246	184	174
772.00000000	156.00000000	142.00000000	246	186	174
772.00000000	157.00000000	142.00000000	246	187	174
771.00000000	158.00000000	142.00000000	245	188	174
772.00000000	158.00000000	142.00000000	246	188	174
776.00000000	113.00000000	143.00000000	247	125	175
775.00000000	114.00000000	143.00000000	247	127	175
778.00000000	114.00000000	143.00000000	247	127	175
775.00000000	115.00000000	143.00000000	247	128	175
776.00000000	115.00000000	143.00000000	247	128	175
777.00000000	115.00000000	143.00000000	247	128	175
778.00000000	115.00000000	143.00000000	247	128	175
775.00000000	116.00000000	143.00000000	247	129	175
778.00000000	116.00000000	143.00000000	247	129	175
775.00000000	117.00000000	143.00000000	247	131	175
777.00000000	117.00000000	143.00000000	247	131	175
775.00000000	118.00000000	143.00000000	247	132	175
773.00000000	119.00000000	143.00000000	246	134	175
774.00000000	119.00000000	143.00000000	246	134	175
773.00000000	120.00000000	143.00000000	246	135	175
774.00000000	121.00000000	143.00000000	246	136	175
775.00000000	121.00000000	143.00000000	247	136	175
775.00000000	122.00000000	143.00000000	247	138	175
774.00000000	123.00000000	143.00000000	246	139	175
775.00000000	123.00000000	143.00000000	247	139	175
775.00000000	124.00000000	143.00000000	247	141	175
775.00000000	125.00000000	143.00000000	247	142	175
774.00000000	126.00000000	143.00000000	246	143	175
774.00000000	127.00000000	143.00000000	246	145	175
773.00000000	128.00000000	143.00000000	246	146	175
773.00000000	129.00000000	143.00000000	246	148	175
773.00000000	130.00000000	143.00000000	246	149	175
774.00000000	130.00000000	143.00000000	246	149	175
773.00000000	131.00000000	143.00000000	246	151	175
773.00000000	132.00000000	143.00000000	246	152	175
773.00000000	133.00000000	143.00000000	246	153	175
773.00000000	134.00000000	143.00000000	246	155	175
773.00000000	135.00000000	143.00000000	246	156	175
773.00000000	136.00000000	143.00000000	246	158	175
773.00000000	137.00000000	143.00000000	246	159	175
773.00000000	138.00000000	143.00000000	246	160	175
773.00000000	139.00000000	143.00000000	246	162	175
773.00000000	140.00000000	143.00000000	246	163	175
773.00000000	141.00000000	143.00000000	246	165	175
773.00000000	142.00000000	143.00000000	246	166	175
773.00000000	143.00000000	143.00000000	246	167	175
773.00000000	144.00000000	143.00000000	246	169	175
773.00000000	145.00000000	143.00000000	246	170	175
773.00000000	146.00000000	143.00000000	246	172	175
772.00000000	147.00000000	143.00000000	246	173	175
772.00000000	148.00000000	143.00000000	246	174	175
772.00000000	149.00000000	143.00000000	246	176	175
772.00000000	150.00000000	143.00000000	246	177	175
773.00000000	151.00000000	143.00000000	246	179	175
773.00000000	152.00000000	143.00000000	246	180	175
773.00000000	153.00000000	143.00000000	246	181	175
772.00000000	154.00000000	143.00000000	246	183	175
772.00000000	155.00000000	143.00000000	246	184	175
772.00000000	156.00000000	143.00000000	246	186	175
771.00000000	157.00000000	143.00000000	245	187	175
776.00000000	114.00000000	144.00000000	247	127	177
778.00000000	114.00000000	144.00000000	247	127	177
776.00000000	115.00000000	144.00000000	247	128	177
779.00000000	115.00000000	144.00000000	248	128	177
772.00000000	116.00000000	144.00000000	246	129	177
775.00000000	116.00000000	144.00000000	247	129	177
779.00000000	116.00000000	144.00000000	248	129	177
775.00000000	117.00000000	144.00000000	247	131	177
778.00000000	117.00000000	144.00000000	247	131	177
775.00000000	118.00000000	144.00000000	247	132	177
776.00000000	118.00000000	144.00000000	247	132	177
778.00000000	118.00000000	144.00000000	247	132	177
774.00000000	119.00000000	144.00000000	246	134	177
774.00000000	120.00000000	144.00000000	246	135	177
775.00000000	121.00000000	144.00000000	247	136	177
775.00000000	122.00000000	144.00000000	247	138	177
775.00000000	123.00000000	144.00000000	247	139	177
775.00000000	124.00000000	144.00000000	247	141	177
775.00000000	125.00000000	144.00000000	247	142	177
774.00000000	126.00000000	144.00000000	246	143	177
774.00000000	127.00000000	144.00000000	246	145	177
774.00000000	128.00000000	144.00000000	246	146	177
773.00000000	129.00000000	144.00000000	246	148	177
774.00000000	129.00000000	144.00000000	246	148	177
773.00000000	130.00000000	144.00000000	246	149	177
774.00000000	130.00000000	144.00000000	246	149	177
773.00000000	131.00000000	144.00000000	246	151	177
774.00000000	131.00000000	144.00000000	246	151	177
773.00000000	132.00000000	144.00000000	246	152	177
774.00000000	133.00000000	144.00000000	246	153	177
773.00000000	134.00000000	144.00000000	246	155	177
773.00000000	135.00000000	144.00000000	246	156	177
773.00000000	136.00000000	144.00000000	246	158	177
773.00000000	137.00000000	144.00000000	246	159	177
773.00000000	138.00000000	144.00000000	246	160	177
773.00000000	139.00000000	144.00000000	246	162	177
773.00000000	140.00000000	144.00000000	246	163	177
773.00000000	141.00000000	144.00000000	246	165	177
773.00000000	142.00000000	144.00000000	246	166	177
773.00000000	143.00000000	144.00000000	246	167	177
773.00000000	144.00000000	144.00000000	246	169	177
773.00000000	145.00000000	144.00000000	246	170	177
773.00000000	146.00000000	144.00000000	246	172	177
773.00000000	147.00000000	144.00000000	246	173	177
773.00000000	148.00000000	144.00000000	246	174	177
773.00000000	149.00000000	144.00000000	246	176	177
772.00000000	150.00000000	144.00000000	246	177	177
773.00000000	151.00000000	144.00000000	246	179	177
773.00000000	152.00000000	144.00000000	246	180	177
773.00000000	153.00000000	144.00000000	246	181	177
772.00000000	154.00000000	144.00000000	246	183	177
772.00000000	155.00000000	144.00000000	246	184	177
771.00000000	156.00000000	144.00000000	245	186	177
779.00000000	115.00000000	145.00000000	248	128	178
775.00000000	116.00000000	145.00000000	247	129	178
777.00000000	116.00000000	145.00000000	247	129	178
779.00000000	116.00000000	145.00000000	248	129	178
773.00000000	117.00000000	145.00000000	246	131	178
775.00000000	117.00000000	145.00000000	247	131	178
775.00000000	118.00000000	145.00000000	247	132	178
779.00000000	118.00000000	145.00000000	248	132	178
775.00000000	119.00000000	145.00000000	247	134	178
778.00000000	119.00000000	145.00000000	247	134	178
775.00000000	120.00000000	145.00000000	247	135	178
778.00000000	120.00000000	145.00000000	247	135	178
775.00000000	121.00000000	145.00000000	247	136	178
775.00000000	122.00000000	145.00000000	247	138	178
775.00000000	123.00000000	145.00000000	247	139	178
775.00000000	124.00000000	145.00000000	247	141	178
774.00000000	125.00000000	145.00000000	246	142	178
774.00000000	126.00000000	145.00000000	246	143	178
774.00000000	127.00000000	145.00000000	246	145	178
773.00000000	128.00000000	145.00000000	246	146	178
775.00000000	128.00000000	145.00000000	247	146	178
774.00000000	129.00000000	145.00000000	246	148	178
773.00000000	130.00000000	145.00000000	246	149	178
774.00000000	130.00000000	145.00000000	246	149	178
774.00000000	131.00000000	145.00000000	246	151	178
774.00000000	132.00000000	145.00000000	246	152	178
773.00000000	133.00000000	145.00000000	246	153	178
773.00000000	134.00000000	145.00000000	246	155	178
773.00000000	135.00000000	145.00000000	246	156	178
773.00000000	136.00000000	145.00000000	246	158	178
773.00000000	137.00000000	145.00000000	246	159	178
773.00000000	138.00000000	145.00000000	246	160	178
773.00000000	139.00000000	145.00000000	246	162	178
773.00000000	140.00000000	145.00000000	246	163	178
773.00000000	141.00000000	145.00000000	246	165	178
773.00000000	142.00000000	145.00000000	246	166	178
773.00000000	143.00000000	145.00000000	246	167	178
773.00000000	144.00000000	145.00000000	246	169	178
773.00000000	145.00000000	145.00000000	246	170	178
773.00000000	146.00000000	145.00000000	246	172	178
773.00000000	147.00000000	145.00000000	246	173	178
773.00000000	148.00000000	145.00000000	246	174	178
773.00000000	149.00000000	145.00000000	246	176	178
773.00000000	150.00000000	145.00000000	246	177	178
773.00000000	151.00000000	145.00000000	246	179	178
773.00000000	152.00000000	145.00000000	246	180	178
773.00000000	153.00000000	145.00000000	246	181	178
773.00000000	154.00000000	145.00000000	246	183	178
771.00000000	155.00000000	145.00000000	245	184	178
772.00000000	155.00000000	145.00000000	246	184	178
772.00000000	156.00000000	145.00000000	246	186	178
778.00000000	116.00000000	146.00000000	247	129	180
775.00000000	117.00000000	146.00000000	247	131	180
778.00000000	117.00000000	146.00000000	247	131	180
775.00000000	118.00000000	146.00000000	247	132	180
778.00000000	118.00000000	146.00000000	247	132	180
779.00000000	118.00000000	146.00000000	248	132	180
776.00000000	119.00000000	146.00000000	247	134	180
778.00000000	119.00000000	146.00000000	247	134	180
779.00000000	119.00000000	146.00000000	248	134	180
776.00000000	120.00000000	146.00000000	247	135	180
779.00000000	120.00000000	146.00000000	248	135	180
776.00000000	121.00000000	146.00000000	247	136	180
778.00000000	121.00000000	146.00000000	247	136	180
774.00000000	122.00000000	146.00000000	246	138	180
775.00000000	122.00000000	146.00000000	247	138	180
774.00000000	123.00000000	146.00000000	246	139	180
775.00000000	123.00000000	146.00000000	247	139	180
775.00000000	124.00000000	146.00000000	247	141	180
774.00000000	125.00000000	146.00000000	246	142	180
774.00000000	126.00000000	146.00000000	246	143	180
774.00000000	127.00000000	146.00000000	246	145	180
773.00000000	128.00000000	146.00000000	246	146	180
775.00000000	128.00000000	146.00000000	247	146	180
774.00000000	129.00000000	146.00000000	246	148	180
774.00000000	130.00000000	146.00000000	246	149	180
774.00000000	131.00000000	146.00000000	246	151	180
774.00000000	132.00000000	146.00000000	246	152	180
774.00000000	133.00000000	146.00000000	246	153	180
773.00000000	134.00000000	146.00000000	246	155	180
773.00000000	135.00000000	146.00000000	246	156	180
773.00000000	136.00000000	146.00000000	246	158	180
773.00000000	137.00000000	146.00000000	246	159	180
773.00000000	138.00000000	146.00000000	246	160	180
773.00000000	139.00000000	146.00000000	246	162	180
773.00000000	140.00000000	146.00000000	246	163	180
773.00000000	141.00000000	146.00000000	246	165	180
773.00000000	142.00000000	146.00000000	246	166	180
773.00000000	143.00000000	146.00000000	246	167	180
773.00000000	144.00000000	146.00000000	246	169	180
773.00000000	145.00000000	146.00000000	246	170	180
773.00000000	146.00000000	146.00000000	246	172	180
773.00000000	147.00000000	146.00000000	246	173	180
773.00000000	148.00000000	146.00000000	246	174	180
773.00000000	149.00000000	146.00000000	246	176	180
773.00000000	150.00000000	146.00000000	246	177	180
773.00000000	151.00000000	146.00000000	246	179	180
773.00000000	152.00000000	146.00000000	246	180	180
773.00000000	153.00000000	146.00000000	246	181	180
773.00000000	154.00000000	146.00000000	246	183	180
772.00000000	155.00000000	146.00000000	246	184	180
773.00000000	155.00000000	146.00000000	246	184	180
776.00000000	118.00000000	147.00000000	247	132	181
778.00000000	118.00000000	147.00000000	247	132	181
776.00000000	119.00000000	147.00000000	247	134	181
778.00000000	119.00000000	147.00000000	247	134	181
776.00000000	120.00000000	147.00000000	247	135	181
778.00000000	120.00000000	147.00000000	247	135	181
776.00000000	121.00000000	147.00000000	247	136	181
779.00000000	121.00000000	147.00000000	248	136	181
774.00000000	122.00000000	147.00000000	246	138	181
775.00000000	122.00000000	147.00000000	247	138	181
778.00000000	122.00000000	147.00000000	247	138	181
774.00000000	123.00000000	147.00000000	246	139	181
775.00000000	123.00000000	147.00000000	247	139	181
775.00000000	124.00000000	147.00000000	247	141	181
774.00000000	125.00000000	147.00000000	246	142	181
775.00000000	125.00000000	147.00000000	247	142	181
774.00000000	126.00000000	147.00000000	246	143	181
774.00000000	127.00000000	147.00000000	246	145	181
772.00000000	128.00000000	147.00000000	246	146	181
775.00000000	128.00000000	147.00000000	247	146	181
773.00000000	129.00000000	147.00000000	246	148	181
775.00000000	129.00000000	147.00000000	247	148	181
774.00000000	130.00000000	147.00000000	246	149	181
774.00000000	131.00000000	147.00000000	246	151	181
773.00000000	132.00000000	147.00000000	246	152	181
773.00000000	133.00000000	147.00000000	246	153	181
773.00000000	134.00000000	147.00000000	246	155	181
775.00000000	134.00000000	147.00000000	247	155	181
773.00000000	135.00000000	147.00000000	246	156	181
773.00000000	136.00000000	147.00000000	246	158	181
773.00000000	137.00000000	147.00000000	246	159	181
774.00000000	138.00000000	147.00000000	246	160	181
773.00000000	139.00000000	147.00000000	246	162	181
773.00000000	140.00000000	147.00000000	246	163	181
773.00000000	141.00000000	147.00000000	246	165	181
773.00000000	142.00000000	147.00000000	246	166	181
773.00000000	143.00000000	147.00000000	246	167	181
773.00000000	144.00000000	147.00000000	246	169	181
773.00000000	145.00000000	147.00000000	246	170	181
773.00000000	146.00000000	147.00000000	246	172	181
773.00000000	147.00000000	147.00000000	246	173	181
773.00000000	148.00000000	147.00000000	246	174	181
773.00000000	149.00000000	147.00000000	246	176	181
773.00000000	150.00000000	147.00000000	246	177	181
773.00000000	151.00000000	147.00000000	246	179	181
773.00000000	152.00000000	147.00000000	246	180	181
773.00000000	153.00000000	147.00000000	246	181	181
773.00000000	154.00000000	147.00000000	246	183	181
776.00000000	119.00000000	148.00000000	247	134	182
775.00000000	120.00000000	148.00000000	247	135	182
778.00000000	120.00000000	148.00000000	247	135	182
775.00000000	121.00000000	148.00000000	247	136	182
777.00000000	121.00000000	148.00000000	247	136	182
774.00000000	122.00000000	148.00000000	246	138	182
775.00000000	122.00000000	148.00000000	247	138	182
775.00000000	123.00000000	148.00000000	247	139	182
775.00000000	124.00000000	148.00000000	247	141	182
775.00000000	125.00000000	148.00000000	247	142	182
774.00000000	126.00000000	148.00000000	246	143	182
775.00000000	126.00000000	148.00000000	247	143	182
773.00000000	127.00000000	148.00000000	246	145	182
775.00000000	127.00000000	148.00000000	247	145	182
772.00000000	128.00000000	148.00000000	246	146	182
774.00000000	128.00000000	148.00000000	246	146	182
775.00000000	128.00000000	148.00000000	247	146	182
773.00000000	129.00000000	148.00000000	246	148	182
775.00000000	129.00000000	148.00000000	247	148	182
774.00000000	130.00000000	148.00000000	246	149	182
774.00000000	131.00000000	148.00000000	246	151	182
773.00000000	132.00000000	148.00000000	246	152	182
773.00000000	133.00000000	148.00000000	246	153	182
775.00000000	133.00000000	148.00000000	247	153	182
773.00000000	134.00000000	148.00000000	246	155	182
775.00000000	134.00000000	148.00000000	247	155	182
773.00000000	135.00000000	148.00000000	246	156	182
775.00000000	135.00000000	148.00000000	247	156	182
773.00000000	136.00000000	148.00000000	246	158	182
774.00000000	137.00000000	148.00000000	246	159	182
774.00000000	138.00000000	148.00000000	246	160	182
774.00000000	139.00000000	148.00000000	246	162	182
774.00000000	140.00000000	148.00000000	246	163	182
773.00000000	141.00000000	148.00000000	246	165	182
773.00000000	142.00000000	148.00000000	246	166	182
773.00000000	143.00000000	148.00000000	246	167	182
773.00000000	144.00000000	148.00000000	246	169	182
774.00000000	145.00000000	148.00000000	246	170	182
774.00000000	146.00000000	148.00000000	246	172	182
773.00000000	147.00000000	148.00000000	246	173	182
773.00000000	148.00000000	148.00000000	246	174	182
773.00000000	149.00000000	148.00000000	246	176	182
773.00000000	150.00000000	148.00000000	246	177	182
773.00000000	151.00000000	148.00000000	246	179	182
773.00000000	152.00000000	148.00000000	246	180	182
773.00000000	153.00000000	148.00000000	246	181	182
777.00000000	120.00000000	149.00000000	247	135	184
778.00000000	120.00000000	149.00000000	247	135	184
775.00000000	121.00000000	149.00000000	247	136	184
778.00000000	121.00000000	149.00000000	247	136	184
775.00000000	122.00000000	149.00000000	247	138	184
776.00000000	122.00000000	149.00000000	247	138	184
777.00000000	122.00000000	149.00000000	247	138	184
776.00000000	123.00000000	149.00000000	247	139	184
776.00000000	124.00000000	149.00000000	247	141	184
775.00000000	125.00000000	149.00000000	247	142	184
774.00000000	126.00000000	149.00000000	246	143	184
775.00000000	126.00000000	149.00000000	247	143	184
773.00000000	127.00000000	149.00000000	246	145	184
774.00000000	127.00000000	149.00000000	246	145	184
775.00000000	127.00000000	149.00000000	247	145	184
773.00000000	128.00000000	149.00000000	246	146	184
774.00000000	128.00000000	149.00000000	246	146	184
775.00000000	128.00000000	149.00000000	247	146	184
773.00000000	129.00000000	149.00000000	246	148	184
775.00000000	129.00000000	149.00000000	247	148	184
775.00000000	130.00000000	149.00000000	247	149	184
773.00000000	131.00000000	149.00000000	246	151	184
774.00000000	131.00000000	149.00000000	246	151	184
773.00000000	132.00000000	149.00000000	246	152	184
773.00000000	133.00000000	149.00000000	246	153	184
773.00000000	134.00000000	149.00000000	246	155	184
775.00000000	134.00000000	149.00000000	247	155	184
776.00000000	134.00000000	149.00000000	247	155	184
773.00000000	135.00000000	149.00000000	246	156	184
775.00000000	135.00000000	149.00000000	247	156	184
773.00000000	136.00000000	149.00000000	246	158	184
774.00000000	136.00000000	149.00000000	246	158	184
774.00000000	137.00000000	149.00000000	246	159	184
774.00000000	138.00000000	149.00000000	246	160	184
774.00000000	139.00000000	149.00000000	246	162	184
774.00000000	140.00000000	149.00000000	246	163	184
774.00000000	141.00000000	149.00000000	246	165	184
773.00000000	142.00000000	149.00000000	246	166	184
773.00000000	143.00000000	149.00000000	246	167	184
773.00000000	144.00000000	149.00000000	246	169	184
774.00000000	145.00000000	149.00000000	246	170	184
774.00000000	146.00000000	149.00000000	246	172	184
773.00000000	147.00000000	149.00000000	246	173	184
773.00000000	148.00000000	149.00000000	246	174	184
773.00000000	149.00000000	149.00000000	246	176	184
773.00000000	150.00000000	149.00000000	246	177	184
773.00000000	151.00000000	149.00000000	246	179	184
773.00000000	152.00000000	149.00000000	246	180	184
778.00000000	121.00000000	150.00000000	247	136	185
778.00000000	122.00000000	150.00000000	247	138	185
775.00000000	123.00000000	150.00000000	247	139	185
777.00000000	123.00000000	150.00000000	247	139	185
778.00000000	123.00000000	150.00000000	247	139	185
776.00000000	124.00000000	150.00000000	247	141	185
775.00000000	125.00000000	150.00000000	247	142	185
775.00000000	126.00000000	150.00000000	247	143	185
775.00000000	127.00000000	150.00000000	247	145	185
775.00000000	128.00000000	150.00000000	247	146	185
773.00000000	129.00000000	150.00000000	246	148	185
775.00000000	129.00000000	150.00000000	247	148	185
774.00000000	130.00000000	150.00000000	246	149	185
773.00000000	131.00000000	150.00000000	246	151	185
774.00000000	131.00000000	150.00000000	246	151	185
774.00000000	132.00000000	150.00000000	246	152	185
774.00000000	133.00000000	150.00000000	246	153	185
773.00000000	134.00000000	150.00000000	246	155	185
774.00000000	134.00000000	150.00000000	246	155	185
775.00000000	134.00000000	150.00000000	247	155	185
773.00000000	135.00000000	150.00000000	246	156	185
774.00000000	136.00000000	150.00000000	246	158	185
774.00000000	137.00000000	150.00000000	246	159	185
774.00000000	138.00000000	150.00000000	246	160	185
774.00000000	139.00000000	150.00000000	246	162	185
774.00000000	140.00000000	150.00000000	246	163	185
774.00000000	141.00000000	150.00000000	246	165	185
773.00000000	142.00000000	150.00000000	246	166	185
774.00000000	143.00000000	150.00000000	246	167	185
774.00000000	144.00000000	150.00000000	246	169	185
774.00000000	145.00000000	150.00000000	246	170	185
774.00000000	146.00000000	150.00000000	246	172	185
774.00000000	147.00000000	150.00000000	246	173	185
773.00000000	148.00000000	150.00000000	246	174	185
773.00000000	149.00000000	150.00000000	246	176	185
773.00000000	150.00000000	150.00000000	246	177	185
773.00000000	151.00000000	150.00000000	246	179	185
777.00000000	122.00000000	151.00000000	247	138	187
774.00000000	123.00000000	151.00000000	246	139	187
775.00000000	123.00000000	151.00000000	247	139	187
773.00000000	124.00000000	151.00000000	246	141	187
775.00000000	124.00000000	151.00000000	247	141	187
774.00000000	125.00000000	151.00000000	246	142	187
775.00000000	125.00000000	151.00000000	247	142	187
775.00000000	126.00000000	151.00000000	247	143	187
775.00000000	127.00000000	151.00000000	247	145	187
775.00000000	128.00000000	151.00000000	247	146	187
775.00000000	129.00000000	151.00000000	247	148	187
774.00000000	130.00000000	151.00000000	246	149	187
774.00000000	131.00000000	151.00000000	246	151	187
774.00000000	132.00000000	151.00000000	246	152	187
774.00000000	133.00000000	151.00000000	246	153	187
775.00000000	133.00000000	151.00000000	247	153	187
773.00000000	134.00000000	151.00000000	246	155	187
772.00000000	135.00000000	151.00000000	246	156	187
773.00000000	135.00000000	151.00000000	246	156	187
774.00000000	136.00000000	151.00000000	246	158	187
774.00000000	137.00000000	151.00000000	246	159	187
774.00000000	138.00000000	151.00000000	246	160	187
774.00000000	139.00000000	151.00000000	246	162	187
774.00000000	140.00000000	151.00000000	246	163	187
774.00000000	141.00000000	151.00000000	246	165	187
774.00000000	142.00000000	151.00000000	246	166	187
774.00000000	143.00000000	151.00000000	246	167	187
774.00000000	144.00000000	151.00000000	246	169	187
774.00000000	145.00000000	151.00000000	246	170	187
774.00000000	146.00000000	151.00000000	246	172	187
774.00000000	147.00000000	151.00000000	246	173	187
774.00000000	148.00000000	151.00000000	246	174	187
773.00000000	149.00000000	151.00000000	246	176	187
773.00000000	150.00000000	151.00000000	246	177	187
778.00000000	123.00000000	152.00000000	247	139	188
775.00000000	124.00000000	152.00000000	247	141	188
777.00000000	124.00000000	152.00000000	247	141	188
774.00000000	125.00000000	152.00000000	246	142	188
775.00000000	125.00000000	152.00000000	247	142	188
774.00000000	126.00000000	152.00000000	246	143	188
775.00000000	126.00000000	152.00000000	247	143	188
775.00000000	127.00000000	152.00000000	247	145	188
775.00000000	128.00000000	152.00000000	247	146	188
775.00000000	129.00000000	152.00000000	247	148	188
774.00000000	130.00000000	152.00000000	246	149	188
774.00000000	131.00000000	152.00000000	246	151	188
774.00000000	132.00000000	152.00000000	246	152	188
774.00000000	133.00000000	152.00000000	246	153	188
773.00000000	134.00000000	152.00000000	246	155	188
772.00000000	135.00000000	152.00000000	246	156	188
773.00000000	135.00000000	152.00000000	246	156	188
774.00000000	136.00000000	152.00000000	246	158	188
774.00000000	137.00000000	152.00000000	246	159	188
774.00000000	138.00000000	152.00000000	246	160	188
774.00000000	139.00000000	152.00000000	246	162	188
774.00000000	140.00000000	152.00000000	246	163	188
774.00000000	141.00000000	152.00000000	246	165	188
774.00000000	142.00000000	152.00000000	246	166	188
774.00000000	143.00000000	152.00000000	246	167	188
774.00000000	144.00000000	152.00000000	246	169	188
774.00000000	145.00000000	152.00000000	246	170	188
774.00000000	146.00000000	152.00000000	246	172	188
774.00000000	147.00000000	152.00000000	246	173	188
774.00000000	148.00000000	152.00000000	246	174	188
773.00000000	149.00000000	152.00000000	246	176	188
773.00000000	150.00000000	152.00000000	246	177	188
775.00000000	125.00000000	153.00000000	247	142	190
775.00000000	126.00000000	153.00000000	247	143	190
775.00000000	127.00000000	153.00000000	247	145	190
775.00000000	128.00000000	153.00000000	247	146	190
774.00000000	129.00000000	153.00000000	246	148	190
775.00000000	130.00000000	153.00000000	247	149	190
775.00000000	131.00000000	153.00000000	247	151	190
774.00000000	132.00000000	153.00000000	246	152	190
774.00000000	133.00000000	153.00000000	246	153	190
774.00000000	134.00000000	153.00000000	246	155	190
774.00000000	135.00000000	153.00000000	246	156	190
774.00000000	136.00000000	153.00000000	246	158	190
774.00000000	137.00000000	153.00000000	246	159	190
774.00000000	138.00000000	153.00000000	246	160	190
774.00000000	139.00000000	153.00000000	246	162	190
774.00000000	140.00000000	153.00000000	246	163	190
774.00000000	141.00000000	153.00000000	246	165	190
774.00000000	142.00000000	153.00000000	246	166	190
774.00000000	143.00000000	153.00000000	246	167	190
774.00000000	144.00000000	153.00000000	246	169	190
774.00000000	145.00000000	153.00000000	246	170	190
774.00000000	146.00000000	153.00000000	246	172	190
774.00000000	147.00000000	153.00000000	246	173	190
773.00000000	148.00000000	153.00000000	246	174	190
773.00000000	149.00000000	153.00000000	246	176	190
775.00000000	127.00000000	154.00000000	247	145	191
775.00000000	128.00000000	154.00000000	247	146	191
775.00000000	129.00000000	154.00000000	247	148	191
775.00000000	130.00000000	154.00000000	247	149	191
775.00000000	131.00000000	154.00000000	247	151	191
775.00000000	132.00000000	154.00000000	247	152	191
775.00000000	133.00000000	154.00000000	247	153	191
774.00000000	134.00000000	154.00000000	246	155	191
774.00000000	135.00000000	154.00000000	246	156	191
774.00000000	136.00000000	154.00000000	246	158	191
774.00000000	137.00000000	154.00000000	246	159	191
774.00000000	138.00000000	154.00000000	246	160	191
774.00000000	139.00000000	154.00000000	246	162	191
774.00000000	140.00000000	154.00000000	246	163	191
774.00000000	141.00000000	154.00000000	246	165	191
774.00000000	142.00000000	154.00000000	246	166	191
774.00000000	143.00000000	154.00000000	246	167	191
774.00000000	144.00000000	154.00000000	246	169	191
774.00000000	145.00000000	154.00000000	246	170	191
774.00000000	146.00000000	154.00000000	246	172	191
773.00000000	147.00000000	154.00000000	246	173	191
775.00000000	127.00000000	155.00000000	247	145	192
775.00000000	128.00000000	155.00000000	247	146	192
775.00000000	129.00000000	155.00000000	247	148	192
775.00000000	130.00000000	155.00000000	247	149	192
775.00000000	131.00000000	155.00000000	247	151	192
775.00000000	132.00000000	155.00000000	247	152	192
776.00000000	132.00000000	155.00000000	247	152	192
775.00000000	133.00000000	155.00000000	247	153	192
774.00000000	134.00000000	155.00000000	246	155	192
774.00000000	135.00000000	155.00000000	246	156	192
774.00000000	136.00000000	155.00000000	246	158	192
774.00000000	137.00000000	155.00000000	246	159	192
774.00000000	138.00000000	155.00000000	246	160	192
774.00000000	139.00000000	155.00000000	246	162	192
774.00000000	140.00000000	155.00000000	246	163	192
774.00000000	141.00000000	155.00000000	246	165	192
774.00000000	142.00000000	155.00000000	246	166	192
774.00000000	143.00000000	155.00000000	246	167	192
774.00000000	144.00000000	155.00000000	246	169	192
774.00000000	145.00000000	155.00000000	246	170	192
774.00000000	146.00000000	155.00000000	246	172	192
773.00000000	147.00000000	155.00000000	246	173	192
774.00000000	147.00000000	155.00000000	246	173	192
774.00000000	148.00000000	155.00000000	246	174	192
775.00000000	128.00000000	156.00000000	247	146	194
775.00000000	129.00000000	156.00000000	247	148	194
775.00000000	130.00000000	156.00000000	247	149	194
775.00000000	131.00000000	156.00000000	247	151	194
776.00000000	131.00000000	156.00000000	247	151	194
775.00000000	132.00000000	156.00000000	247	152	194
776.00000000	132.00000000	156.00000000	247	152	194
775.00000000	133.00000000	156.00000000	247	153	194
774.00000000	134.00000000	156.00000000	246	155	194
774.00000000	135.00000000	156.00000000	246	156	194
774.00000000	136.00000000	156.00000000	246	158	194
774.00000000	137.00000000	156.00000000	246	159	194
774.00000000	138.00000000	156.00000000	246	160	194
774.00000000	139.00000000	156.00000000	246	162	194
774.00000000	140.00000000	156.00000000	246	163	194
774.00000000	141.00000000	156.00000000	246	165	194
774.00000000	142.00000000	156.00000000	246	166	194
774.00000000	143.00000000	156.00000000	246	167	194
774.00000000	144.00000000	156.00000000	246	169	194
774.00000000	145.00000000	156.00000000	246	170	194
773.00000000	146.00000000	156.00000000	246	172	194
774.00000000	147.00000000	156.00000000	246	173	194
775.00000000	130.00000000	157.00000000	247	149	195
775.00000000	131.00000000	157.00000000	247	151	195
775.00000000	132.00000000	157.00000000	247	152	195
776.00000000	132.00000000	157.00000000	247	152	195
775.00000000	133.00000000	157.00000000	247	153	195
774.00000000	134.00000000	157.00000000	246	155	195
774.00000000	135.00000000	157.00000000	246	156	195
774.00000000	136.00000000	157.00000000	246	158	195
773.00000000	137.00000000	157.00000000	246	159	195
775.00000000	137.00000000	157.00000000	247	159	195
774.00000000	138.00000000	157.00000000	246	160	195
774.00000000	139.00000000	157.00000000	246	162	195
774.00000000	140.00000000	157.00000000	246	163	195
774.00000000	141.00000000	157.00000000	246	165	195
774.00000000	142.00000000	157.00000000	246	166	195
774.00000000	143.00000000	157.00000000	246	167	195
774.00000000	144.00000000	157.00000000	246	169	195
773.00000000	145.00000000	157.00000000	246	170	195
775.00000000	131.00000000	158.00000000	247	151	197
775.00000000	132.00000000	158.00000000	247	152	197
775.00000000	133.00000000	158.00000000	247	153	197
775.00000000	134.00000000	158.00000000	247	155	197
775.00000000	135.00000000	158.00000000	247	156	197
774.00000000	136.00000000	158.00000000	246	158	197
773.00000000	137.00000000	158.00000000	246	159	197
774.00000000	137.00000000	158.00000000	246	159	197
774.00000000	138.00000000	158.00000000	246	160	197
774.00000000	139.00000000	158.00000000	246	162	197
774.00000000	140.00000000	158.00000000	246	163	197
774.00000000	141.00000000	158.00000000	246	165	197
774.00000000	142.00000000	158.00000000	246	166	197
774.00000000	143.00000000	158.00000000	246	167	197
774.00000000	144.00000000	158.00000000	246	169	197
775.00000000	132.00000000	159.00000000	247	152	198
775.00000000	133.00000000	159.00000000	247	153	198
776.00000000	134.00000000	159.00000000	247	155	198
775.00000000	135.00000000	159.00000000	247	156	198
775.00000000	136.00000000	159.00000000	247	158	198
773.00000000	137.00000000	159.00000000	246	159	198
775.00000000	137.00000000	159.00000000	247	159	198
775.00000000	138.00000000	159.00000000	247	160	198
775.00000000	139.00000000	159.00000000	247	162	198
774.00000000	140.00000000	159.00000000	246	163	198
774.00000000	141.00000000	159.00000000	246	165	198
774.00000000	142.00000000	159.00000000	246	166	198
774.00000000	143.00000000	159.00000000	246	167	198
774.00000000	144.00000000	159.00000000	246	169	198
775.00000000	133.00000000	160.00000000	247	153	199
775.00000000	134.00000000	160.00000000	247	155	199
775.00000000	135.00000000	160.00000000	247	156	199
774.00000000	136.00000000	160.00000000	246	158	199
775.00000000	137.00000000	160.00000000	247	159	199
