35.00000000	84.00000000	15.00000000	2	144	19
35.00000000	85.00000000	15.00000000	2	146	19
35.00000000	59.00000000	16.00000000	2	94	21
35.00000000	60.00000000	16.00000000	2	96	21
35.00000000	61.00000000	16.00000000	2	98	21
35.00000000	62.00000000	16.00000000	2	100	21
35.00000000	63.00000000	16.00000000	2	102	21
35.00000000	64.00000000	16.00000000	2	104	21
35.00000000	65.00000000	16.00000000	2	106	21
35.00000000	66.00000000	16.00000000	2	108	21
35.00000000	67.00000000	16.00000000	2	110	21
35.00000000	68.00000000	16.00000000	2	112	21
35.00000000	69.00000000	16.00000000	2	114	21
35.00000000	70.00000000	16.00000000	2	116	21
35.00000000	71.00000000	16.00000000	2	118	21
35.00000000	72.00000000	16.00000000	2	120	21
35.00000000	73.00000000	16.00000000	2	122	21
35.00000000	74.00000000	16.00000000	2	124	21
35.00000000	75.00000000	16.00000000	2	126	21
35.00000000	76.00000000	16.00000000	2	128	21
35.00000000	77.00000000	16.00000000	2	130	21
35.00000000	78.00000000	16.00000000	2	132	21
35.00000000	79.00000000	16.00000000	2	134	21
35.00000000	80.00000000	16.00000000	2	136	21
35.00000000	81.00000000	16.00000000	2	138	21
35.00000000	82.00000000	16.00000000	2	140	21
35.00000000	83.00000000	16.00000000	2	142	21
35.00000000	84.00000000	16.00000000	2	144	21
35.00000000	85.00000000	16.00000000	2	146	21
35.00000000	86.00000000	16.00000000	2	148	21
35.00000000	87.00000000	16.00000000	2	150	21
35.00000000	59.00000000	17.00000000	2	94	22
35.00000000	60.00000000	17.00000000	2	96	22
35.00000000	61.00000000	17.00000000	2	98	22
35.00000000	62.00000000	17.00000000	2	100	22
34.00000000	63.00000000	17.00000000	1	102	22
34.00000000	64.00000000	17.00000000	1	104	22
35.00000000	65.00000000	17.00000000	2	106	22
35.00000000	66.00000000	17.00000000	2	108	22
35.00000000	67.00000000	17.00000000	2	110	22
35.00000000	68.00000000	17.00000000	2	112	22
35.00000000	69.00000000	17.00000000	2	114	22
35.00000000	70.00000000	17.00000000	2	116	22
35.00000000	71.00000000	17.00000000	2	118	22
35.00000000	72.00000000	17.00000000	2	120	22
35.00000000	73.00000000	17.00000000	2	122	22
35.00000000	74.00000000	17.00000000	2	124	22
35.00000000	75.00000000	17.00000000	2	126	22
35.00000000	76.00000000	17.00000000	2	128	22
35.00000000	77.00000000	17.00000000	2	130	22
35.00000000	78.00000000	17.00000000	2	132	22
35.00000000	79.00000000	17.00000000	2	134	22
35.00000000	80.00000000	17.00000000	2	136	22
35.00000000	81.00000000	17.00000000	2	138	22
35.00000000	82.00000000	17.00000000	2	140	22
35.00000000	83.00000000	17.00000000	2	142	22
35.00000000	84.00000000	17.00000000	2	144	22
35.00000000	85.00000000	17.00000000	2	146	22
35.00000000	86.00000000	17.00000000	2	148	22
35.00000000	87.00000000	17.00000000	2	150	22
35.00000000	88.00000000	17.00000000	2	152	22
35.00000000	89.00000000	17.00000000	2	154	22
35.00000000	58.00000000	18.00000000	2	92	24
35.00000000	59.00000000	18.00000000	2	94	24
35.00000000	60.00000000	18.00000000	2	96	24
35.00000000	61.00000000	18.00000000	2	98	24
35.00000000	62.00000000	18.00000000	2	100	24
34.00000000	63.00000000	18.00000000	1	102	24
34.00000000	64.00000000	18.00000000	1	104	24
34.00000000	65.00000000	18.00000000	1	106	24
35.00000000	66.00000000	18.00000000	2	108	24
35.00000000	67.00000000	18.00000000	2	110	24
35.00000000	68.00000000	18.00000000	2	112	24
35.00000000	69.00000000	18.00000000	2	114	24
35.00000000	70.00000000	18.00000000	2	116	24
35.00000000	71.00000000	18.00000000	2	118	24
35.00000000	72.00000000	18.00000000	2	120	24
35.00000000	73.00000000	18.00000000	2	122	24
35.00000000	74.00000000	18.00000000	2	124	24
35.00000000	75.00000000	18.00000000	2	126	24
35.00000000	76.00000000	18.00000000	2	128	24
35.00000000	77.00000000	18.00000000	2	130	24
35.00000000	78.00000000	18.00000000	2	132	24
35.00000000	79.00000000	18.00000000	2	134	24
35.00000000	80.00000000	18.00000000	2	136	24
35.00000000	81.00000000	18.00000000	2	138	24
35.00000000	82.00000000	18.00000000	2	140	24
35.00000000	83.00000000	18.00000000	2	142	24
35.00000000	84.00000000	18.00000000	2	144	24
35.00000000	85.00000000	18.00000000	2	146	24
35.00000000	86.00000000	18.00000000	2	148	24
35.00000000	87.00000000	18.00000000	2	150	24
35.00000000	88.00000000	18.00000000	2	152	24
35.00000000	89.00000000	18.00000000	2	154	24
35.00000000	90.00000000	18.00000000	2	156	24
35.00000000	58.00000000	19.00000000	2	92	26
35.00000000	59.00000000	19.00000000	2	94	26
35.00000000	60.00000000	19.00000000	2	96	26
35.00000000	61.00000000	19.00000000	2	98	26
34.00000000	62.00000000	19.00000000	1	100	26
34.00000000	63.00000000	19.00000000	1	102	26
34.00000000	64.00000000	19.00000000	1	104	26
34.00000000	65.00000000	19.00000000	1	106	26
34.00000000	66.00000000	19.00000000	1	108	26
34.00000000	67.00000000	19.00000000	1	110	26
35.00000000	68.00000000	19.00000000	2	112	26
35.00000000	69.00000000	19.00000000	2	114	26
35.00000000	70.00000000	19.00000000	2	116	26
35.00000000	71.00000000	19.00000000	2	118	26
35.00000000	72.00000000	19.00000000	2	120	26
35.00000000	73.00000000	19.00000000	2	122	26
35.00000000	74.00000000	19.00000000	2	124	26
35.00000000	75.00000000	19.00000000	2	126	26
35.00000000	76.00000000	19.00000000	2	128	26
35.00000000	77.00000000	19.00000000	2	130	26
35.00000000	78.00000000	19.00000000	2	132	26
35.00000000	79.00000000	19.00000000	2	134	26
35.00000000	80.00000000	19.00000000	2	136	26
35.00000000	81.00000000	19.00000000	2	138	26
35.00000000	82.00000000	19.00000000	2	140	26
35.00000000	83.00000000	19.00000000	2	142	26
35.00000000	84.00000000	19.00000000	2	144	26
35.00000000	85.00000000	19.00000000	2	146	26
35.00000000	86.00000000	19.00000000	2	148	26
35.00000000	87.00000000	19.00000000	2	150	26
35.00000000	88.00000000	19.00000000	2	152	26
35.00000000	89.00000000	19.00000000	2	154	26
35.00000000	90.00000000	19.00000000	2	156	26
35.00000000	91.00000000	19.00000000	2	158	26
35.00000000	92.00000000	19.00000000	2	160	26
35.00000000	93.00000000	19.00000000	2	162	26
35.00000000	57.00000000	20.00000000	2	90	28
35.00000000	58.00000000	20.00000000	2	92	28
35.00000000	59.00000000	20.00000000	2	94	28
35.00000000	60.00000000	20.00000000	2	96	28
35.00000000	61.00000000	20.00000000	2	98	28
34.00000000	62.00000000	20.00000000	1	100	28
34.00000000	63.00000000	20.00000000	1	102	28
34.00000000	64.00000000	20.00000000	1	104	28
34.00000000	65.00000000	20.00000000	1	106	28
34.00000000	66.00000000	20.00000000	1	108	28
34.00000000	67.00000000	20.00000000	1	110	28
34.00000000	68.00000000	20.00000000	1	112	28
34.00000000	69.00000000	20.00000000	1	114	28
35.00000000	70.00000000	20.00000000	2	116	28
35.00000000	71.00000000	20.00000000	2	118	28
35.00000000	72.00000000	20.00000000	2	120	28
35.00000000	73.00000000	20.00000000	2	122	28
35.00000000	74.00000000	20.00000000	2	124	28
35.00000000	75.00000000	20.00000000	2	126	28
35.00000000	76.00000000	20.00000000	2	128	28
35.00000000	77.00000000	20.00000000	2	130	28
35.00000000	78.00000000	20.00000000	2	132	28
35.00000000	79.00000000	20.00000000	2	134	28
35.00000000	80.00000000	20.00000000	2	136	28
35.00000000	81.00000000	20.00000000	2	138	28
35.00000000	82.00000000	20.00000000	2	140	28
35.00000000	83.00000000	20.00000000	2	142	28
35.00000000	84.00000000	20.00000000	2	144	28
35.00000000	85.00000000	20.00000000	2	146	28
35.00000000	86.00000000	20.00000000	2	148	28
35.00000000	87.00000000	20.00000000	2	150	28
35.00000000	88.00000000	20.00000000	2	152	28
35.00000000	89.00000000	20.00000000	2	154	28
35.00000000	90.00000000	20.00000000	2	156	28
35.00000000	91.00000000	20.00000000	2	158	28
35.00000000	92.00000000	20.00000000	2	160	28
35.00000000	93.00000000	20.00000000	2	162	28
35.00000000	94.00000000	20.00000000	2	164	28
35.00000000	95.00000000	20.00000000	2	166	28
35.00000000	57.00000000	21.00000000	2	90	29
35.00000000	58.00000000	21.00000000	2	92	29
35.00000000	59.00000000	21.00000000	2	94	29
35.00000000	60.00000000	21.00000000	2	96	29
34.00000000	61.00000000	21.00000000	1	98	29
34.00000000	62.00000000	21.00000000	1	100	29
34.00000000	63.00000000	21.00000000	1	102	29
34.00000000	64.00000000	21.00000000	1	104	29
34.00000000	65.00000000	21.00000000	1	106	29
34.00000000	66.00000000	21.00000000	1	108	29
34.00000000	67.00000000	21.00000000	1	110	29
34.00000000	68.00000000	21.00000000	1	112	29
34.00000000	69.00000000	21.00000000	1	114	29
34.00000000	70.00000000	21.00000000	1	116	29
35.00000000	71.00000000	21.00000000	2	118	29
35.00000000	72.00000000	21.00000000	2	120	29
35.00000000	73.00000000	21.00000000	2	122	29
35.00000000	74.00000000	21.00000000	2	124	29
35.00000000	75.00000000	21.00000000	2	126	29
35.00000000	76.00000000	21.00000000	2	128	29
35.00000000	77.00000000	21.00000000	2	130	29
35.00000000	78.00000000	21.00000000	2	132	29
35.00000000	79.00000000	21.00000000	2	134	29
35.00000000	80.00000000	21.00000000	2	136	29
35.00000000	81.00000000	21.00000000	2	138	29
35.00000000	82.00000000	21.00000000	2	140	29
35.00000000	83.00000000	21.00000000	2	142	29
35.00000000	84.00000000	21.00000000	2	144	29
35.00000000	85.00000000	21.00000000	2	146	29
35.00000000	86.00000000	21.00000000	2	148	29
35.00000000	87.00000000	21.00000000	2	150	29
35.00000000	88.00000000	21.00000000	2	152	29
35.00000000	89.00000000	21.00000000	2	154	29
35.00000000	90.00000000	21.00000000	2	156	29
35.00000000	91.00000000	21.00000000	2	158	29
35.00000000	92.00000000	21.00000000	2	160	29
35.00000000	93.00000000	21.00000000	2	162	29
35.00000000	94.00000000	21.00000000	2	164	29
35.00000000	95.00000000	21.00000000	2	166	29
35.00000000	96.00000000	21.00000000	2	168	29
35.00000000	56.00000000	22.00000000	2	88	31
35.00000000	57.00000000	22.00000000	2	90	31
35.00000000	58.00000000	22.00000000	2	92	31
35.00000000	59.00000000	22.00000000	2	94	31
35.00000000	60.00000000	22.00000000	2	96	31
34.00000000	61.00000000	22.00000000	1	98	31
34.00000000	62.00000000	22.00000000	1	100	31
34.00000000	63.00000000	22.00000000	1	102	31
34.00000000	64.00000000	22.00000000	1	104	31
34.00000000	65.00000000	22.00000000	1	106	31
34.00000000	66.00000000	22.00000000	1	108	31
34.00000000	67.00000000	22.00000000	1	110	31
34.00000000	68.00000000	22.00000000	1	112	31
34.00000000	69.00000000	22.00000000	1	114	31
34.00000000	70.00000000	22.00000000	1	116	31
35.00000000	71.00000000	22.00000000	2	118	31
35.00000000	72.00000000	22.00000000	2	120	31
35.00000000	73.00000000	22.00000000	2	122	31
35.00000000	74.00000000	22.00000000	2	124	31
35.00000000	75.00000000	22.00000000	2	126	31
35.00000000	76.00000000	22.00000000	2	128	31
35.00000000	77.00000000	22.00000000	2	130	31
35.00000000	78.00000000	22.00000000	2	132	31
35.00000000	79.00000000	22.00000000	2	134	31
35.00000000	80.00000000	22.00000000	2	136	31
35.00000000	81.00000000	22.00000000	2	138	31
35.00000000	82.00000000	22.00000000	2	140	31
35.00000000	83.00000000	22.00000000	2	142	31
35.00000000	84.00000000	22.00000000	2	144	31
35.00000000	85.00000000	22.00000000	2	146	31
35.00000000	86.00000000	22.00000000	2	148	31
35.00000000	87.00000000	22.00000000	2	150	31
35.00000000	88.00000000	22.00000000	2	152	31
35.00000000	89.00000000	22.00000000	2	154	31
35.00000000	90.00000000	22.00000000	2	156	31
35.00000000	91.00000000	22.00000000	2	158	31
35.00000000	92.00000000	22.00000000	2	160	31
35.00000000	93.00000000	22.00000000	2	162	31
35.00000000	94.00000000	22.00000000	2	164	31
35.00000000	95.00000000	22.00000000	2	166	31
35.00000000	96.00000000	22.00000000	2	168	31
35.00000000	97.00000000	22.00000000	2	170	31
35.00000000	98.00000000	22.00000000	2	172	31
35.00000000	56.00000000	23.00000000	2	88	33
35.00000000	57.00000000	23.00000000	2	90	33
35.00000000	58.00000000	23.00000000	2	92	33
35.00000000	59.00000000	23.00000000	2	94	33
34.00000000	60.00000000	23.00000000	1	96	33
34.00000000	61.00000000	23.00000000	1	98	33
34.00000000	62.00000000	23.00000000	1	100	33
34.00000000	63.00000000	23.00000000	1	102	33
34.00000000	64.00000000	23.00000000	1	104	33
34.00000000	65.00000000	23.00000000	1	106	33
34.00000000	66.00000000	23.00000000	1	108	33
34.00000000	67.00000000	23.00000000	1	110	33
34.00000000	68.00000000	23.00000000	1	112	33
34.00000000	69.00000000	23.00000000	1	114	33
34.00000000	70.00000000	23.00000000	1	116	33
34.00000000	71.00000000	23.00000000	1	118	33
35.00000000	72.00000000	23.00000000	2	120	33
35.00000000	73.00000000	23.00000000	2	122	33
35.00000000	74.00000000	23.00000000	2	124	33
35.00000000	75.00000000	23.00000000	2	126	33
35.00000000	76.00000000	23.00000000	2	128	33
35.00000000	77.00000000	23.00000000	2	130	33
35.00000000	78.00000000	23.00000000	2	132	33
35.00000000	79.00000000	23.00000000	2	134	33
35.00000000	80.00000000	23.00000000	2	136	33
35.00000000	81.00000000	23.00000000	2	138	33
35.00000000	82.00000000	23.00000000	2	140	33
35.00000000	83.00000000	23.00000000	2	142	33
35.00000000	84.00000000	23.00000000	2	144	33
35.00000000	85.00000000	23.00000000	2	146	33
35.00000000	86.00000000	23.00000000	2	148	33
35.00000000	87.00000000	23.00000000	2	150	33
35.00000000	88.00000000	23.00000000	2	152	33
35.00000000	89.00000000	23.00000000	2	154	33
34.00000000	90.00000000	23.00000000	1	156	33
35.00000000	91.00000000	23.00000000	2	158	33
35.00000000	92.00000000	23.00000000	2	160	33
35.00000000	93.00000000	23.00000000	2	162	33
35.00000000	94.00000000	23.00000000	2	164	33
35.00000000	95.00000000	23.00000000	2	166	33
35.00000000	96.00000000	23.00000000	2	168	33
35.00000000	97.00000000	23.00000000	2	170	33
35.00000000	98.00000000	23.00000000	2	172	33
35.00000000	99.00000000	23.00000000	2	174	33
35.00000000	100.00000000	23.00000000	2	176	33
35.00000000	56.00000000	24.00000000	2	88	35
35.00000000	57.00000000	24.00000000	2	90	35
35.00000000	58.00000000	24.00000000	2	92	35
34.00000000	59.00000000	24.00000000	1	94	35
34.00000000	60.00000000	24.00000000	1	96	35
34.00000000	61.00000000	24.00000000	1	98	35
34.00000000	62.00000000	24.00000000	1	100	35
34.00000000	63.00000000	24.00000000	1	102	35
34.00000000	64.00000000	24.00000000	1	104	35
34.00000000	65.00000000	24.00000000	1	106	35
34.00000000	66.00000000	24.00000000	1	108	35
34.00000000	67.00000000	24.00000000	1	110	35
34.00000000	68.00000000	24.00000000	1	112	35
34.00000000	69.00000000	24.00000000	1	114	35
34.00000000	70.00000000	24.00000000	1	116	35
34.00000000	71.00000000	24.00000000	1	118	35
34.00000000	72.00000000	24.00000000	1	120	35
34.00000000	73.00000000	24.00000000	1	122	35
34.00000000	74.00000000	24.00000000	1	124	35
34.00000000	75.00000000	24.00000000	1	126	35
35.00000000	76.00000000	24.00000000	2	128	35
35.00000000	77.00000000	24.00000000	2	130	35
35.00000000	78.00000000	24.00000000	2	132	35
35.00000000	79.00000000	24.00000000	2	134	35
35.00000000	80.00000000	24.00000000	2	136	35
35.00000000	81.00000000	24.00000000	2	138	35
35.00000000	82.00000000	24.00000000	2	140	35
35.00000000	83.00000000	24.00000000	2	142	35
35.00000000	84.00000000	24.00000000	2	144	35
35.00000000	85.00000000	24.00000000	2	146	35
35.00000000	86.00000000	24.00000000	2	148	35
35.00000000	87.00000000	24.00000000	2	150	35
35.00000000	88.00000000	24.00000000	2	152	35
34.00000000	89.00000000	24.00000000	1	154	35
34.00000000	90.00000000	24.00000000	1	156	35
34.00000000	91.00000000	24.00000000	1	158	35
35.00000000	92.00000000	24.00000000	2	160	35
35.00000000	93.00000000	24.00000000	2	162	35
35.00000000	94.00000000	24.00000000	2	164	35
35.00000000	95.00000000	24.00000000	2	166	35
35.00000000	96.00000000	24.00000000	2	168	35
35.00000000	97.00000000	24.00000000	2	170	35
35.00000000	98.00000000	24.00000000	2	172	35
35.00000000	99.00000000	24.00000000	2	174	35
35.00000000	100.00000000	24.00000000	2	176	35
35.00000000	101.00000000	24.00000000	2	178	35
35.00000000	102.00000000	24.00000000	2	180	35
35.00000000	55.00000000	25.00000000	2	86	36
35.00000000	56.00000000	25.00000000	2	88	36
35.00000000	57.00000000	25.00000000	2	90	36
35.00000000	58.00000000	25.00000000	2	92	36
34.00000000	59.00000000	25.00000000	1	94	36
34.00000000	60.00000000	25.00000000	1	96	36
34.00000000	61.00000000	25.00000000	1	98	36
34.00000000	62.00000000	25.00000000	1	100	36
34.00000000	63.00000000	25.00000000	1	102	36
34.00000000	64.00000000	25.00000000	1	104	36
34.00000000	65.00000000	25.00000000	1	106	36
34.00000000	66.00000000	25.00000000	1	108	36
34.00000000	67.00000000	25.00000000	1	110	36
34.00000000	68.00000000	25.00000000	1	112	36
34.00000000	69.00000000	25.00000000	1	114	36
34.00000000	70.00000000	25.00000000	1	116	36
34.00000000	71.00000000	25.00000000	1	118	36
34.00000000	72.00000000	25.00000000	1	120	36
34.00000000	73.00000000	25.00000000	1	122	36
34.00000000	74.00000000	25.00000000	1	124	36
34.00000000	75.00000000	25.00000000	1	126	36
34.00000000	76.00000000	25.00000000	1	128	36
35.00000000	77.00000000	25.00000000	2	130	36
35.00000000	78.00000000	25.00000000	2	132	36
35.00000000	79.00000000	25.00000000	2	134	36
35.00000000	80.00000000	25.00000000	2	136	36
35.00000000	81.00000000	25.00000000	2	138	36
35.00000000	82.00000000	25.00000000	2	140	36
35.00000000	83.00000000	25.00000000	2	142	36
35.00000000	84.00000000	25.00000000	2	144	36
35.00000000	85.00000000	25.00000000	2	146	36
35.00000000	86.00000000	25.00000000	2	148	36
35.00000000	87.00000000	25.00000000	2	150	36
34.00000000	88.00000000	25.00000000	1	152	36
34.00000000	89.00000000	25.00000000	1	154	36
34.00000000	90.00000000	25.00000000	1	156	36
34.00000000	91.00000000	25.00000000	1	158	36
34.00000000	92.00000000	25.00000000	1	160	36
34.00000000	93.00000000	25.00000000	1	162	36
35.00000000	94.00000000	25.00000000	2	164	36
35.00000000	95.00000000	25.00000000	2	166	36
35.00000000	96.00000000	25.00000000	2	168	36
35.00000000	97.00000000	25.00000000	2	170	36
35.00000000	98.00000000	25.00000000	2	172	36
35.00000000	99.00000000	25.00000000	2	174	36
35.00000000	100.00000000	25.00000000	2	176	36
35.00000000	101.00000000	25.00000000	2	178	36
35.00000000	102.00000000	25.00000000	2	180	36
35.00000000	103.00000000	25.00000000	2	182	36
35.00000000	104.00000000	25.00000000	2	184	36
35.00000000	55.00000000	26.00000000	2	86	38
35.00000000	56.00000000	26.00000000	2	88	38
35.00000000	57.00000000	26.00000000	2	90	38
35.00000000	58.00000000	26.00000000	2	92	38
34.00000000	59.00000000	26.00000000	1	94	38
34.00000000	60.00000000	26.00000000	1	96	38
34.00000000	61.00000000	26.00000000	1	98	38
34.00000000	62.00000000	26.00000000	1	100	38
34.00000000	63.00000000	26.00000000	1	102	38
34.00000000	64.00000000	26.00000000	1	104	38
34.00000000	65.00000000	26.00000000	1	106	38
34.00000000	66.00000000	26.00000000	1	108	38
34.00000000	67.00000000	26.00000000	1	110	38
34.00000000	68.00000000	26.00000000	1	112	38
34.00000000	69.00000000	26.00000000	1	114	38
34.00000000	70.00000000	26.00000000	1	116	38
34.00000000	71.00000000	26.00000000	1	118	38
34.00000000	72.00000000	26.00000000	1	120	38
34.00000000	73.00000000	26.00000000	1	122	38
34.00000000	74.00000000	26.00000000	1	124	38
34.00000000	75.00000000	26.00000000	1	126	38
34.00000000	76.00000000	26.00000000	1	128	38
34.00000000	77.00000000	26.00000000	1	130	38
34.00000000	78.00000000	26.00000000	1	132	38
34.00000000	79.00000000	26.00000000	1	134	38
35.00000000	80.00000000	26.00000000	2	136	38
35.00000000	81.00000000	26.00000000	2	138	38
35.00000000	82.00000000	26.00000000	2	140	38
35.00000000	83.00000000	26.00000000	2	142	38
35.00000000	84.00000000	26.00000000	2	144	38
34.00000000	85.00000000	26.00000000	1	146	38
34.00000000	86.00000000	26.00000000	1	148	38
34.00000000	87.00000000	26.00000000	1	150	38
34.00000000	88.00000000	26.00000000	1	152	38
34.00000000	89.00000000	26.00000000	1	154	38
34.00000000	90.00000000	26.00000000	1	156	38
34.00000000	91.00000000	26.00000000	1	158	38
34.00000000	92.00000000	26.00000000	1	160	38
34.00000000	93.00000000	26.00000000	1	162	38
34.00000000	94.00000000	26.00000000	1	164	38
34.00000000	95.00000000	26.00000000	1	166	38
34.00000000	96.00000000	26.00000000	1	168	38
35.00000000	97.00000000	26.00000000	2	170	38
35.00000000	98.00000000	26.00000000	2	172	38
35.00000000	99.00000000	26.00000000	2	174	38
35.00000000	100.00000000	26.00000000	2	176	38
35.00000000	101.00000000	26.00000000	2	178	38
35.00000000	102.00000000	26.00000000	2	180	38
35.00000000	103.00000000	26.00000000	2	182	38
35.00000000	104.00000000	26.00000000	2	184	38
35.00000000	105.00000000	26.00000000	2	186	38
35.00000000	54.00000000	27.00000000	2	84	40
35.00000000	55.00000000	27.00000000	2	86	40
35.00000000	56.00000000	27.00000000	2	88	40
34.00000000	57.00000000	27.00000000	1	90	40
34.00000000	58.00000000	27.00000000	1	92	40
34.00000000	59.00000000	27.00000000	1	94	40
34.00000000	60.00000000	27.00000000	1	96	40
34.00000000	61.00000000	27.00000000	1	98	40
34.00000000	62.00000000	27.00000000	1	100	40
34.00000000	63.00000000	27.00000000	1	102	40
34.00000000	64.00000000	27.00000000	1	104	40
34.00000000	65.00000000	27.00000000	1	106	40
34.00000000	66.00000000	27.00000000	1	108	40
34.00000000	67.00000000	27.00000000	1	110	40
34.00000000	68.00000000	27.00000000	1	112	40
34.00000000	69.00000000	27.00000000	1	114	40
34.00000000	70.00000000	27.00000000	1	116	40
34.00000000	71.00000000	27.00000000	1	118	40
34.00000000	72.00000000	27.00000000	1	120	40
34.00000000	73.00000000	27.00000000	1	122	40
34.00000000	74.00000000	27.00000000	1	124	40
34.00000000	75.00000000	27.00000000	1	126	40
34.00000000	76.00000000	27.00000000	1	128	40
34.00000000	77.00000000	27.00000000	1	130	40
34.00000000	78.00000000	27.00000000	1	132	40
34.00000000	79.00000000	27.00000000	1	134	40
34.00000000	80.00000000	27.00000000	1	136	40
34.00000000	81.00000000	27.00000000	1	138	40
34.00000000	82.00000000	27.00000000	1	140	40
34.00000000	83.00000000	27.00000000	1	142	40
34.00000000	84.00000000	27.00000000	1	144	40
34.00000000	85.00000000	27.00000000	1	146	40
34.00000000	86.00000000	27.00000000	1	148	40
34.00000000	87.00000000	27.00000000	1	150	40
34.00000000	88.00000000	27.00000000	1	152	40
34.00000000	89.00000000	27.00000000	1	154	40
34.00000000	90.00000000	27.00000000	1	156	40
34.00000000	91.00000000	27.00000000	1	158	40
34.00000000	92.00000000	27.00000000	1	160	40
34.00000000	93.00000000	27.00000000	1	162	40
34.00000000	94.00000000	27.00000000	1	164	40
34.00000000	95.00000000	27.00000000	1	166	40
34.00000000	96.00000000	27.00000000	1	168	40
34.00000000	97.00000000	27.00000000	1	170	40
35.00000000	98.00000000	27.00000000	2	172	40
35.00000000	99.00000000	27.00000000	2	174	40
35.00000000	100.00000000	27.00000000	2	176	40
35.00000000	101.00000000	27.00000000	2	178	40
35.00000000	102.00000000	27.00000000	2	180	40
35.00000000	103.00000000	27.00000000	2	182	40
35.00000000	104.00000000	27.00000000	2	184	40
35.00000000	105.00000000	27.00000000	2	186	40
35.00000000	106.00000000	27.00000000	2	188	40
35.00000000	107.00000000	27.00000000	2	190	40
35.00000000	54.00000000	28.00000000	2	84	42
34.00000000	55.00000000	28.00000000	1	86	42
34.00000000	56.00000000	28.00000000	1	88	42
34.00000000	57.00000000	28.00000000	1	90	42
34.00000000	58.00000000	28.00000000	1	92	42
34.00000000	59.00000000	28.00000000	1	94	42
34.00000000	60.00000000	28.00000000	1	96	42
34.00000000	61.00000000	28.00000000	1	98	42
34.00000000	62.00000000	28.00000000	1	100	42
34.00000000	63.00000000	28.00000000	1	102	42
34.00000000	64.00000000	28.00000000	1	104	42
34.00000000	65.00000000	28.00000000	1	106	42
34.00000000	66.00000000	28.00000000	1	108	42
34.00000000	67.00000000	28.00000000	1	110	42
34.00000000	68.00000000	28.00000000	1	112	42
34.00000000	69.00000000	28.00000000	1	114	42
34.00000000	70.00000000	28.00000000	1	116	42
34.00000000	71.00000000	28.00000000	1	118	42
34.00000000	72.00000000	28.00000000	1	120	42
34.00000000	73.00000000	28.00000000	1	122	42
34.00000000	74.00000000	28.00000000	1	124	42
34.00000000	75.00000000	28.00000000	1	126	42
34.00000000	76.00000000	28.00000000	1	128	42
34.00000000	77.00000000	28.00000000	1	130	42
34.00000000	78.00000000	28.00000000	1	132	42
34.00000000	79.00000000	28.00000000	1	134	42
34.00000000	80.00000000	28.00000000	1	136	42
34.00000000	81.00000000	28.00000000	1	138	42
34.00000000	82.00000000	28.00000000	1	140	42
34.00000000	83.00000000	28.00000000	1	142	42
34.00000000	84.00000000	28.00000000	1	144	42
34.00000000	85.00000000	28.00000000	1	146	42
34.00000000	86.00000000	28.00000000	1	148	42
34.00000000	87.00000000	28.00000000	1	150	42
34.00000000	88.00000000	28.00000000	1	152	42
34.00000000	89.00000000	28.00000000	1	154	42
34.00000000	90.00000000	28.00000000	1	156	42
34.00000000	91.00000000	28.00000000	1	158	42
34.00000000	92.00000000	28.00000000	1	160	42
34.00000000	93.00000000	28.00000000	1	162	42
34.00000000	94.00000000	28.00000000	1	164	42
34.00000000	95.00000000	28.00000000	1	166	42
34.00000000	96.00000000	28.00000000	1	168	42
34.00000000	97.00000000	28.00000000	1	170	42
34.00000000	98.00000000	28.00000000	1	172	42
34.00000000	99.00000000	28.00000000	1	174	42
35.00000000	100.00000000	28.00000000	2	176	42
35.00000000	101.00000000	28.00000000	2	178	42
35.00000000	102.00000000	28.00000000	2	180	42
35.00000000	103.00000000	28.00000000	2	182	42
35.00000000	104.00000000	28.00000000	2	184	42
35.00000000	105.00000000	28.00000000	2	186	42
35.00000000	106.00000000	28.00000000	2	188	42
35.00000000	107.00000000	28.00000000	2	190	42
35.00000000	108.00000000	28.00000000	2	192	42
35.00000000	109.00000000	28.00000000	2	194	42
35.00000000	53.00000000	29.00000000	2	82	43
34.00000000	54.00000000	29.00000000	1	84	43
34.00000000	55.00000000	29.00000000	1	86	43
34.00000000	56.00000000	29.00000000	1	88	43
34.00000000	57.00000000	29.00000000	1	90	43
34.00000000	58.00000000	29.00000000	1	92	43
34.00000000	59.00000000	29.00000000	1	94	43
34.00000000	60.00000000	29.00000000	1	96	43
34.00000000	61.00000000	29.00000000	1	98	43
34.00000000	62.00000000	29.00000000	1	100	43
34.00000000	63.00000000	29.00000000	1	102	43
34.00000000	64.00000000	29.00000000	1	104	43
34.00000000	65.00000000	29.00000000	1	106	43
34.00000000	66.00000000	29.00000000	1	108	43
34.00000000	67.00000000	29.00000000	1	110	43
34.00000000	68.00000000	29.00000000	1	112	43
34.00000000	69.00000000	29.00000000	1	114	43
34.00000000	70.00000000	29.00000000	1	116	43
34.00000000	71.00000000	29.00000000	1	118	43
34.00000000	72.00000000	29.00000000	1	120	43
34.00000000	73.00000000	29.00000000	1	122	43
34.00000000	74.00000000	29.00000000	1	124	43
34.00000000	75.00000000	29.00000000	1	126	43
34.00000000	76.00000000	29.00000000	1	128	43
34.00000000	77.00000000	29.00000000	1	130	43
34.00000000	78.00000000	29.00000000	1	132	43
34.00000000	79.00000000	29.00000000	1	134	43
34.00000000	80.00000000	29.00000000	1	136	43
34.00000000	81.00000000	29.00000000	1	138	43
34.00000000	82.00000000	29.00000000	1	140	43
34.00000000	83.00000000	29.00000000	1	142	43
34.00000000	84.00000000	29.00000000	1	144	43
34.00000000	85.00000000	29.00000000	1	146	43
34.00000000	86.00000000	29.00000000	1	148	43
34.00000000	87.00000000	29.00000000	1	150	43
34.00000000	88.00000000	29.00000000	1	152	43
34.00000000	89.00000000	29.00000000	1	154	43
34.00000000	90.00000000	29.00000000	1	156	43
34.00000000	91.00000000	29.00000000	1	158	43
34.00000000	92.00000000	29.00000000	1	160	43
34.00000000	93.00000000	29.00000000	1	162	43
34.00000000	94.00000000	29.00000000	1	164	43
34.00000000	95.00000000	29.00000000	1	166	43
34.00000000	96.00000000	29.00000000	1	168	43
34.00000000	97.00000000	29.00000000	1	170	43
34.00000000	98.00000000	29.00000000	1	172	43
34.00000000	99.00000000	29.00000000	1	174	43
34.00000000	100.00000000	29.00000000	1	176	43
34.00000000	101.00000000	29.00000000	1	178	43
35.00000000	102.00000000	29.00000000	2	180	43
35.00000000	103.00000000	29.00000000	2	182	43
35.00000000	104.00000000	29.00000000	2	184	43
35.00000000	105.00000000	29.00000000	2	186	43
35.00000000	106.00000000	29.00000000	2	188	43
35.00000000	107.00000000	29.00000000	2	190	43
35.00000000	108.00000000	29.00000000	2	192	43
35.00000000	109.00000000	29.00000000	2	194	43
35.00000000	110.00000000	29.00000000	2	196	43
35.00000000	111.00000000	29.00000000	2	198	43
34.00000000	53.00000000	30.00000000	1	82	45
34.00000000	54.00000000	30.00000000	1	84	45
34.00000000	55.00000000	30.00000000	1	86	45
34.00000000	56.00000000	30.00000000	1	88	45
34.00000000	57.00000000	30.00000000	1	90	45
34.00000000	58.00000000	30.00000000	1	92	45
34.00000000	59.00000000	30.00000000	1	94	45
34.00000000	60.00000000	30.00000000	1	96	45
34.00000000	61.00000000	30.00000000	1	98	45
34.00000000	62.00000000	30.00000000	1	100	45
34.00000000	63.00000000	30.00000000	1	102	45
34.00000000	64.00000000	30.00000000	1	104	45
34.00000000	65.00000000	30.00000000	1	106	45
34.00000000	66.00000000	30.00000000	1	108	45
34.00000000	67.00000000	30.00000000	1	110	45
34.00000000	68.00000000	30.00000000	1	112	45
34.00000000	69.00000000	30.00000000	1	114	45
34.00000000	70.00000000	30.00000000	1	116	45
34.00000000	71.00000000	30.00000000	1	118	45
34.00000000	72.00000000	30.00000000	1	120	45
34.00000000	73.00000000	30.00000000	1	122	45
34.00000000	74.00000000	30.00000000	1	124	45
34.00000000	75.00000000	30.00000000	1	126	45
34.00000000	76.00000000	30.00000000	1	128	45
34.00000000	77.00000000	30.00000000	1	130	45
34.00000000	78.00000000	30.00000000	1	132	45
34.00000000	79.00000000	30.00000000	1	134	45
34.00000000	80.00000000	30.00000000	1	136	45
34.00000000	81.00000000	30.00000000	1	138	45
34.00000000	82.00000000	30.00000000	1	140	45
34.00000000	83.00000000	30.00000000	1	142	45
34.00000000	84.00000000	30.00000000	1	144	45
34.00000000	85.00000000	30.00000000	1	146	45
34.00000000	86.00000000	30.00000000	1	148	45
34.00000000	87.00000000	30.00000000	1	150	45
34.00000000	88.00000000	30.00000000	1	152	45
34.00000000	89.00000000	30.00000000	1	154	45
34.00000000	90.00000000	30.00000000	1	156	45
34.00000000	91.00000000	30.00000000	1	158	45
34.00000000	92.00000000	30.00000000	1	160	45
34.00000000	93.00000000	30.00000000	1	162	45
34.00000000	94.00000000	30.00000000	1	164	45
34.00000000	95.00000000	30.00000000	1	166	45
34.00000000	96.00000000	30.00000000	1	168	45
34.00000000	97.00000000	30.00000000	1	170	45
34.00000000	98.00000000	30.00000000	1	172	45
34.00000000	99.00000000	30.00000000	1	174	45
34.00000000	100.00000000	30.00000000	1	176	45
34.00000000	101.00000000	30.00000000	1	178	45
34.00000000	102.00000000	30.00000000	1	180	45
34.00000000	103.00000000	30.00000000	1	182	45
35.00000000	104.00000000	30.00000000	2	184	45
35.00000000	105.00000000	30.00000000	2	186	45
35.00000000	106.00000000	30.00000000	2	188	45
35.00000000	107.00000000	30.00000000	2	190	45
35.00000000	108.00000000	30.00000000	2	192	45
35.00000000	109.00000000	30.00000000	2	194	45
35.00000000	110.00000000	30.00000000	2	196	45
35.00000000	111.00000000	30.00000000	2	198	45
35.00000000	112.00000000	30.00000000	2	200	45
35.00000000	113.00000000	30.00000000	2	202	45
34.00000000	52.00000000	31.00000000	1	80	47
34.00000000	53.00000000	31.00000000	1	82	47
34.00000000	54.00000000	31.00000000	1	84	47
34.00000000	55.00000000	31.00000000	1	86	47
34.00000000	56.00000000	31.00000000	1	88	47
34.00000000	57.00000000	31.00000000	1	90	47
34.00000000	58.00000000	31.00000000	1	92	47
34.00000000	59.00000000	31.00000000	1	94	47
34.00000000	60.00000000	31.00000000	1	96	47
34.00000000	61.00000000	31.00000000	1	98	47
34.00000000	62.00000000	31.00000000	1	100	47
34.00000000	63.00000000	31.00000000	1	102	47
34.00000000	64.00000000	31.00000000	1	104	47
34.00000000	65.00000000	31.00000000	1	106	47
34.00000000	66.00000000	31.00000000	1	108	47
34.00000000	67.00000000	31.00000000	1	110	47
34.00000000	68.00000000	31.00000000	1	112	47
34.00000000	69.00000000	31.00000000	1	114	47
34.00000000	70.00000000	31.00000000	1	116	47
34.00000000	71.00000000	31.00000000	1	118	47
34.00000000	72.00000000	31.00000000	1	120	47
34.00000000	73.00000000	31.00000000	1	122	47
34.00000000	74.00000000	31.00000000	1	124	47
34.00000000	75.00000000	31.00000000	1	126	47
34.00000000	76.00000000	31.00000000	1	128	47
34.00000000	77.00000000	31.00000000	1	130	47
34.00000000	78.00000000	31.00000000	1	132	47
34.00000000	79.00000000	31.00000000	1	134	47
34.00000000	80.00000000	31.00000000	1	136	47
34.00000000	81.00000000	31.00000000	1	138	47
34.00000000	82.00000000	31.00000000	1	140	47
34.00000000	83.00000000	31.00000000	1	142	47
34.00000000	84.00000000	31.00000000	1	144	47
34.00000000	85.00000000	31.00000000	1	146	47
34.00000000	86.00000000	31.00000000	1	148	47
34.00000000	87.00000000	31.00000000	1	150	47
34.00000000	88.00000000	31.00000000	1	152	47
34.00000000	89.00000000	31.00000000	1	154	47
34.00000000	90.00000000	31.00000000	1	156	47
34.00000000	91.00000000	31.00000000	1	158	47
34.00000000	92.00000000	31.00000000	1	160	47
34.00000000	93.00000000	31.00000000	1	162	47
34.00000000	94.00000000	31.00000000	1	164	47
34.00000000	95.00000000	31.00000000	1	166	47
34.00000000	96.00000000	31.00000000	1	168	47
34.00000000	97.00000000	31.00000000	1	170	47
34.00000000	98.00000000	31.00000000	1	172	47
34.00000000	99.00000000	31.00000000	1	174	47
34.00000000	100.00000000	31.00000000	1	176	47
34.00000000	101.00000000	31.00000000	1	178	47
34.00000000	102.00000000	31.00000000	1	180	47
34.00000000	103.00000000	31.00000000	1	182	47
34.00000000	104.00000000	31.00000000	1	184	47
34.00000000	105.00000000	31.00000000	1	186	47
35.00000000	106.00000000	31.00000000	2	188	47
35.00000000	107.00000000	31.00000000	2	190	47
35.00000000	108.00000000	31.00000000	2	192	47
35.00000000	109.00000000	31.00000000	2	194	47
35.00000000	110.00000000	31.00000000	2	196	47
35.00000000	111.00000000	31.00000000	2	198	47
35.00000000	112.00000000	31.00000000	2	200	47
35.00000000	113.00000000	31.00000000	2	202	47
35.00000000	114.00000000	31.00000000	2	204	47
35.00000000	115.00000000	31.00000000	2	206	47
34.00000000	51.00000000	32.00000000	1	78	48
34.00000000	52.00000000	32.00000000	1	80	48
34.00000000	53.00000000	32.00000000	1	82	48
34.00000000	54.00000000	32.00000000	1	84	48
34.00000000	55.00000000	32.00000000	1	86	48
34.00000000	56.00000000	32.00000000	1	88	48
34.00000000	57.00000000	32.00000000	1	90	48
34.00000000	58.00000000	32.00000000	1	92	48
34.00000000	59.00000000	32.00000000	1	94	48
34.00000000	60.00000000	32.00000000	1	96	48
34.00000000	61.00000000	32.00000000	1	98	48
34.00000000	62.00000000	32.00000000	1	100	48
34.00000000	63.00000000	32.00000000	1	102	48
34.00000000	64.00000000	32.00000000	1	104	48
34.00000000	65.00000000	32.00000000	1	106	48
34.00000000	66.00000000	32.00000000	1	108	48
34.00000000	67.00000000	32.00000000	1	110	48
34.00000000	68.00000000	32.00000000	1	112	48
34.00000000	69.00000000	32.00000000	1	114	48
34.00000000	70.00000000	32.00000000	1	116	48
34.00000000	71.00000000	32.00000000	1	118	48
34.00000000	72.00000000	32.00000000	1	120	48
34.00000000	73.00000000	32.00000000	1	122	48
34.00000000	74.00000000	32.00000000	1	124	48
34.00000000	75.00000000	32.00000000	1	126	48
34.00000000	76.00000000	32.00000000	1	128	48
34.00000000	77.00000000	32.00000000	1	130	48
34.00000000	78.00000000	32.00000000	1	132	48
34.00000000	79.00000000	32.00000000	1	134	48
34.00000000	80.00000000	32.00000000	1	136	48
34.00000000	81.00000000	32.00000000	1	138	48
34.00000000	82.00000000	32.00000000	1	140	48
34.00000000	83.00000000	32.00000000	1	142	48
34.00000000	84.00000000	32.00000000	1	144	48
34.00000000	85.00000000	32.00000000	1	146	48
34.00000000	86.00000000	32.00000000	1	148	48
34.00000000	87.00000000	32.00000000	1	150	48
34.00000000	88.00000000	32.00000000	1	152	48
34.00000000	89.00000000	32.00000000	1	154	48
34.00000000	90.00000000	32.00000000	1	156	48
34.00000000	91.00000000	32.00000000	1	158	48
34.00000000	92.00000000	32.00000000	1	160	48
34.00000000	93.00000000	32.00000000	1	162	48
34.00000000	94.00000000	32.00000000	1	164	48
34.00000000	95.00000000	32.00000000	1	166	48
34.00000000	96.00000000	32.00000000	1	168	48
34.00000000	97.00000000	32.00000000	1	170	48
34.00000000	98.00000000	32.00000000	1	172	48
34.00000000	99.00000000	32.00000000	1	174	48
34.00000000	100.00000000	32.00000000	1	176	48
34.00000000	101.00000000	32.00000000	1	178	48
34.00000000	102.00000000	32.00000000	1	180	48
34.00000000	103.00000000	32.00000000	1	182	48
34.00000000	104.00000000	32.00000000	1	184	48
34.00000000	105.00000000	32.00000000	1	186	48
34.00000000	106.00000000	32.00000000	1	188	48
34.00000000	107.00000000	32.00000000	1	190	48
35.00000000	108.00000000	32.00000000	2	192	48
35.00000000	109.00000000	32.00000000	2	194	48
35.00000000	110.00000000	32.00000000	2	196	48
35.00000000	111.00000000	32.00000000	2	198	48
35.00000000	112.00000000	32.00000000	2	200	48
35.00000000	113.00000000	32.00000000	2	202	48
35.00000000	114.00000000	32.00000000	2	204	48
35.00000000	115.00000000	32.00000000	2	206	48
35.00000000	116.00000000	32.00000000	2	208	48
34.00000000	50.00000000	33.00000000	1	76	50
34.00000000	51.00000000	33.00000000	1	78	50
34.00000000	52.00000000	33.00000000	1	80	50
34.00000000	53.00000000	33.00000000	1	82	50
34.00000000	54.00000000	33.00000000	1	84	50
34.00000000	55.00000000	33.00000000	1	86	50
34.00000000	56.00000000	33.00000000	1	88	50
34.00000000	57.00000000	33.00000000	1	90	50
34.00000000	58.00000000	33.00000000	1	92	50
34.00000000	59.00000000	33.00000000	1	94	50
34.00000000	60.00000000	33.00000000	1	96	50
34.00000000	61.00000000	33.00000000	1	98	50
34.00000000	62.00000000	33.00000000	1	100	50
34.00000000	63.00000000	33.00000000	1	102	50
34.00000000	64.00000000	33.00000000	1	104	50
34.00000000	65.00000000	33.00000000	1	106	50
34.00000000	66.00000000	33.00000000	1	108	50
34.00000000	67.00000000	33.00000000	1	110	50
34.00000000	68.00000000	33.00000000	1	112	50
34.00000000	69.00000000	33.00000000	1	114	50
34.00000000	70.00000000	33.00000000	1	116	50
34.00000000	71.00000000	33.00000000	1	118	50
34.00000000	72.00000000	33.00000000	1	120	50
34.00000000	73.00000000	33.00000000	1	122	50
34.00000000	74.00000000	33.00000000	1	124	50
34.00000000	75.00000000	33.00000000	1	126	50
34.00000000	76.00000000	33.00000000	1	128	50
34.00000000	77.00000000	33.00000000	1	130	50
34.00000000	78.00000000	33.00000000	1	132	50
34.00000000	79.00000000	33.00000000	1	134	50
34.00000000	80.00000000	33.00000000	1	136	50
34.00000000	81.00000000	33.00000000	1	138	50
34.00000000	82.00000000	33.00000000	1	140	50
34.00000000	83.00000000	33.00000000	1	142	50
34.00000000	84.00000000	33.00000000	1	144	50
34.00000000	85.00000000	33.00000000	1	146	50
34.00000000	86.00000000	33.00000000	1	148	50
34.00000000	87.00000000	33.00000000	1	150	50
34.00000000	88.00000000	33.00000000	1	152	50
34.00000000	89.00000000	33.00000000	1	154	50
34.00000000	90.00000000	33.00000000	1	156	50
34.00000000	91.00000000	33.00000000	1	158	50
34.00000000	92.00000000	33.00000000	1	160	50
34.00000000	93.00000000	33.00000000	1	162	50
34.00000000	94.00000000	33.00000000	1	164	50
34.00000000	95.00000000	33.00000000	1	166	50
34.00000000	96.00000000	33.00000000	1	168	50
34.00000000	97.00000000	33.00000000	1	170	50
34.00000000	98.00000000	33.00000000	1	172	50
34.00000000	99.00000000	33.00000000	1	174	50
34.00000000	100.00000000	33.00000000	1	176	50
34.00000000	101.00000000	33.00000000	1	178	50
34.00000000	102.00000000	33.00000000	1	180	50
34.00000000	103.00000000	33.00000000	1	182	50
34.00000000	104.00000000	33.00000000	1	184	50
34.00000000	105.00000000	33.00000000	1	186	50
34.00000000	106.00000000	33.00000000	1	188	50
34.00000000	107.00000000	33.00000000	1	190	50
34.00000000	108.00000000	33.00000000	1	192	50
34.00000000	109.00000000	33.00000000	1	194	50
35.00000000	110.00000000	33.00000000	2	196	50
35.00000000	111.00000000	33.00000000	2	198	50
35.00000000	112.00000000	33.00000000	2	200	50
35.00000000	113.00000000	33.00000000	2	202	50
35.00000000	114.00000000	33.00000000	2	204	50
35.00000000	115.00000000	33.00000000	2	206	50
35.00000000	116.00000000	33.00000000	2	208	50
35.00000000	117.00000000	33.00000000	2	210	50
35.00000000	118.00000000	33.00000000	2	212	50
34.00000000	50.00000000	34.00000000	1	76	52
34.00000000	51.00000000	34.00000000	1	78	52
34.00000000	52.00000000	34.00000000	1	80	52
34.00000000	53.00000000	34.00000000	1	82	52
34.00000000	54.00000000	34.00000000	1	84	52
34.00000000	55.00000000	34.00000000	1	86	52
34.00000000	56.00000000	34.00000000	1	88	52
34.00000000	57.00000000	34.00000000	1	90	52
34.00000000	58.00000000	34.00000000	1	92	52
34.00000000	59.00000000	34.00000000	1	94	52
34.00000000	60.00000000	34.00000000	1	96	52
34.00000000	61.00000000	34.00000000	1	98	52
34.00000000	62.00000000	34.00000000	1	100	52
34.00000000	63.00000000	34.00000000	1	102	52
34.00000000	64.00000000	34.00000000	1	104	52
34.00000000	65.00000000	34.00000000	1	106	52
34.00000000	66.00000000	34.00000000	1	108	52
34.00000000	67.00000000	34.00000000	1	110	52
34.00000000	68.00000000	34.00000000	1	112	52
34.00000000	69.00000000	34.00000000	1	114	52
34.00000000	70.00000000	34.00000000	1	116	52
34.00000000	71.00000000	34.00000000	1	118	52
34.00000000	72.00000000	34.00000000	1	120	52
34.00000000	73.00000000	34.00000000	1	122	52
34.00000000	74.00000000	34.00000000	1	124	52
34.00000000	75.00000000	34.00000000	1	126	52
34.00000000	76.00000000	34.00000000	1	128	52
34.00000000	77.00000000	34.00000000	1	130	52
34.00000000	78.00000000	34.00000000	1	132	52
34.00000000	79.00000000	34.00000000	1	134	52
34.00000000	80.00000000	34.00000000	1	136	52
34.00000000	81.00000000	34.00000000	1	138	52
34.00000000	82.00000000	34.00000000	1	140	52
34.00000000	83.00000000	34.00000000	1	142	52
34.00000000	84.00000000	34.00000000	1	144	52
34.00000000	85.00000000	34.00000000	1	146	52
34.00000000	86.00000000	34.00000000	1	148	52
34.00000000	87.00000000	34.00000000	1	150	52
34.00000000	88.00000000	34.00000000	1	152	52
34.00000000	89.00000000	34.00000000	1	154	52
34.00000000	90.00000000	34.00000000	1	156	52
34.00000000	91.00000000	34.00000000	1	158	52
34.00000000	92.00000000	34.00000000	1	160	52
34.00000000	93.00000000	34.00000000	1	162	52
34.00000000	94.00000000	34.00000000	1	164	52
34.00000000	95.00000000	34.00000000	1	166	52
34.00000000	96.00000000	34.00000000	1	168	52
34.00000000	97.00000000	34.00000000	1	170	52
34.00000000	98.00000000	34.00000000	1	172	52
34.00000000	99.00000000	34.00000000	1	174	52
34.00000000	100.00000000	34.00000000	1	176	52
34.00000000	101.00000000	34.00000000	1	178	52
34.00000000	102.00000000	34.00000000	1	180	52
34.00000000	103.00000000	34.00000000	1	182	52
34.00000000	104.00000000	34.00000000	1	184	52
34.00000000	105.00000000	34.00000000	1	186	52
34.00000000	106.00000000	34.00000000	1	188	52
34.00000000	107.00000000	34.00000000	1	190	52
34.00000000	108.00000000	34.00000000	1	192	52
34.00000000	109.00000000	34.00000000	1	194	52
34.00000000	110.00000000	34.00000000	1	196	52
34.00000000	111.00000000	34.00000000	1	198	52
35.00000000	112.00000000	34.00000000	2	200	52
35.00000000	113.00000000	34.00000000	2	202	52
35.00000000	114.00000000	34.00000000	2	204	52
35.00000000	115.00000000	34.00000000	2	206	52
35.00000000	116.00000000	34.00000000	2	208	52
35.00000000	117.00000000	34.00000000	2	210	52
35.00000000	118.00000000	34.00000000	2	212	52
35.00000000	119.00000000	34.00000000	2	214	52
35.00000000	120.00000000	34.00000000	2	216	52
34.00000000	50.00000000	35.00000000	1	76	54
34.00000000	51.00000000	35.00000000	1	78	54
34.00000000	52.00000000	35.00000000	1	80	54
34.00000000	53.00000000	35.00000000	1	82	54
34.00000000	54.00000000	35.00000000	1	84	54
34.00000000	55.00000000	35.00000000	1	86	54
34.00000000	56.00000000	35.00000000	1	88	54
34.00000000	57.00000000	35.00000000	1	90	54
34.00000000	58.00000000	35.00000000	1	92	54
34.00000000	59.00000000	35.00000000	1	94	54
34.00000000	60.00000000	35.00000000	1	96	54
34.00000000	61.00000000	35.00000000	1	98	54
34.00000000	62.00000000	35.00000000	1	100	54
34.00000000	63.00000000	35.00000000	1	102	54
34.00000000	64.00000000	35.00000000	1	104	54
34.00000000	65.00000000	35.00000000	1	106	54
34.00000000	66.00000000	35.00000000	1	108	54
34.00000000	67.00000000	35.00000000	1	110	54
34.00000000	68.00000000	35.00000000	1	112	54
34.00000000	69.00000000	35.00000000	1	114	54
34.00000000	70.00000000	35.00000000	1	116	54
34.00000000	71.00000000	35.00000000	1	118	54
34.00000000	72.00000000	35.00000000	1	120	54
34.00000000	73.00000000	35.00000000	1	122	54
34.00000000	74.00000000	35.00000000	1	124	54
34.00000000	75.00000000	35.00000000	1	126	54
34.00000000	76.00000000	35.00000000	1	128	54
34.00000000	77.00000000	35.00000000	1	130	54
34.00000000	78.00000000	35.00000000	1	132	54
34.00000000	79.00000000	35.00000000	1	134	54
34.00000000	80.00000000	35.00000000	1	136	54
34.00000000	81.00000000	35.00000000	1	138	54
34.00000000	82.00000000	35.00000000	1	140	54
34.00000000	83.00000000	35.00000000	1	142	54
34.00000000	84.00000000	35.00000000	1	144	54
34.00000000	85.00000000	35.00000000	1	146	54
34.00000000	86.00000000	35.00000000	1	148	54
34.00000000	87.00000000	35.00000000	1	150	54
34.00000000	88.00000000	35.00000000	1	152	54
34.00000000	89.00000000	35.00000000	1	154	54
34.00000000	90.00000000	35.00000000	1	156	54
34.00000000	91.00000000	35.00000000	1	158	54
34.00000000	92.00000000	35.00000000	1	160	54
34.00000000	93.00000000	35.00000000	1	162	54
34.00000000	94.00000000	35.00000000	1	164	54
34.00000000	95.00000000	35.00000000	1	166	54
34.00000000	96.00000000	35.00000000	1	168	54
34.00000000	97.00000000	35.00000000	1	170	54
34.00000000	98.00000000	35.00000000	1	172	54
34.00000000	99.00000000	35.00000000	1	174	54
34.00000000	100.00000000	35.00000000	1	176	54
34.00000000	101.00000000	35.00000000	1	178	54
34.00000000	102.00000000	35.00000000	1	180	54
34.00000000	103.00000000	35.00000000	1	182	54
34.00000000	104.00000000	35.00000000	1	184	54
34.00000000	105.00000000	35.00000000	1	186	54
34.00000000	106.00000000	35.00000000	1	188	54
34.00000000	107.00000000	35.00000000	1	190	54
34.00000000	108.00000000	35.00000000	1	192	54
34.00000000	109.00000000	35.00000000	1	194	54
34.00000000	110.00000000	35.00000000	1	196	54
34.00000000	111.00000000	35.00000000	1	198	54
34.00000000	112.00000000	35.00000000	1	200	54
35.00000000	113.00000000	35.00000000	2	202	54
35.00000000	114.00000000	35.00000000	2	204	54
35.00000000	115.00000000	35.00000000	2	206	54
35.00000000	116.00000000	35.00000000	2	208	54
35.00000000	117.00000000	35.00000000	2	210	54
35.00000000	118.00000000	35.00000000	2	212	54
35.00000000	119.00000000	35.00000000	2	214	54
35.00000000	120.00000000	35.00000000	2	216	54
35.00000000	121.00000000	35.00000000	2	218	54
35.00000000	122.00000000	35.00000000	2	220	54
34.00000000	50.00000000	36.00000000	1	76	55
34.00000000	51.00000000	36.00000000	1	78	55
34.00000000	52.00000000	36.00000000	1	80	55
34.00000000	53.00000000	36.00000000	1	82	55
34.00000000	54.00000000	36.00000000	1	84	55
34.00000000	55.00000000	36.00000000	1	86	55
34.00000000	56.00000000	36.00000000	1	88	55
34.00000000	57.00000000	36.00000000	1	90	55
34.00000000	58.00000000	36.00000000	1	92	55
34.00000000	59.00000000	36.00000000	1	94	55
34.00000000	60.00000000	36.00000000	1	96	55
34.00000000	61.00000000	36.00000000	1	98	55
34.00000000	62.00000000	36.00000000	1	100	55
34.00000000	63.00000000	36.00000000	1	102	55
34.00000000	64.00000000	36.00000000	1	104	55
34.00000000	65.00000000	36.00000000	1	106	55
34.00000000	66.00000000	36.00000000	1	108	55
34.00000000	67.00000000	36.00000000	1	110	55
34.00000000	68.00000000	36.00000000	1	112	55
34.00000000	69.00000000	36.00000000	1	114	55
34.00000000	70.00000000	36.00000000	1	116	55
34.00000000	71.00000000	36.00000000	1	118	55
34.00000000	72.00000000	36.00000000	1	120	55
34.00000000	73.00000000	36.00000000	1	122	55
34.00000000	74.00000000	36.00000000	1	124	55
34.00000000	75.00000000	36.00000000	1	126	55
34.00000000	76.00000000	36.00000000	1	128	55
34.00000000	77.00000000	36.00000000	1	130	55
34.00000000	78.00000000	36.00000000	1	132	55
34.00000000	79.00000000	36.00000000	1	134	55
34.00000000	80.00000000	36.00000000	1	136	55
34.00000000	81.00000000	36.00000000	1	138	55
34.00000000	82.00000000	36.00000000	1	140	55
34.00000000	83.00000000	36.00000000	1	142	55
34.00000000	84.00000000	36.00000000	1	144	55
34.00000000	85.00000000	36.00000000	1	146	55
34.00000000	86.00000000	36.00000000	1	148	55
34.00000000	87.00000000	36.00000000	1	150	55
34.00000000	88.00000000	36.00000000	1	152	55
34.00000000	89.00000000	36.00000000	1	154	55
34.00000000	90.00000000	36.00000000	1	156	55
34.00000000	91.00000000	36.00000000	1	158	55
34.00000000	92.00000000	36.00000000	1	160	55
34.00000000	93.00000000	36.00000000	1	162	55
34.00000000	94.00000000	36.00000000	1	164	55
34.00000000	95.00000000	36.00000000	1	166	55
34.00000000	96.00000000	36.00000000	1	168	55
